774,779,785,791,797,804,812,820,836,849,858,881,904,933,953,971,995,1017,1040,1064,1095,1140,1178,1212,1257,1297,1314,1338,1373,1391,1406,1428,1461,1488,1517,1530,1523,1504,1480,1463,1449,1438,1429,1423,1408,1392,1375,1354,1333,1342,1360,1373,1386,1400,1416,1428,1440,1440,1440,1436,1420,1410,1397,1376,1357,1338,1314,1295,1276,1259,1249,1240,1231,1223,1215,1209,1202,1191,1191,1201,1202,1203,1213,1205,1196,1187,1174,1159,1172,1178,1185,1203,1215,1215,1218,1224,1233,1241,1245,1250,1252,1249,1243,1238,1235,1230,1232,1234,1233,1234,1233,1232,1239,1252,1242,1247,1246,1243,1242,1231,1219,1207,1199,1200,1192,1184,1176,1168,1166,1175,1187,1201,1209,1215,1225,1238,1256,1275,1296,1320,1342,1366,1390,1424,1464,1492,1507,1522,1541,1524,1506,1495,1488,1481,1467,1449,1430,1416,1403,1390,1377,1359,1345,1347,1336,1338,1326,1313,1305,1289,1269,1260,1280,1279,1275,1276,1284,1283,1280,1274,1265,1253,1240,1224,1211,1199,1190,1181,1177,1165,1146,1137,1141,1149,1160,1160,1162,1171,1181,1193,1206,1218,1223,1226,1230,1235
772,777,782,787,792,799,810,823,846,863,872,880,905,928,953,970,988,1012,1037,1070,1096,1135,1177,1210,1243,1270,1302,1344,1390,1446,1473,1493,1512,1523,1527,1507,1489,1471,1451,1432,1417,1403,1401,1395,1377,1360,1342,1322,1324,1345,1360,1375,1391,1408,1421,1428,1435,1440,1433,1421,1410,1398,1386,1370,1351,1331,1308,1282,1265,1250,1238,1230,1222,1216,1210,1204,1200,1199,1204,1213,1215,1212,1220,1209,1203,1193,1182,1159,1190,1200,1206,1220,1222,1227,1232,1238,1242,1249,1255,1260,1264,1260,1257,1253,1249,1245,1246,1246,1245,1246,1243,1245,1258,1269,1263,1265,1262,1260,1255,1240,1240,1237,1228,1220,1214,1210,1205,1207,1212,1220,1225,1228,1231,1237,1244,1256,1274,1295,1315,1335,1352,1377,1404,1450,1463,1489,1510,1544,1543,1526,1512,1499,1484,1468,1452,1434,1415,1402,1388,1375,1362,1340,1316,1309,1309,1302,1294,1285,1276,1268,1259,1240,1243,1249,1255,1254,1257,1262,1261,1254,1248,1243,1238,1230,1223,1210,1196,1185,1168,1142,1144,1150,1155,1162,1173,1180,1178,1179,1194,1209,1221,1227,1232,1237,1243,1250
771,776,780,781,792,803,815,832,851,866,882,892,907,920,934,953,977,997,1018,1051,1079,1111,1154,1200,1235,1270,1306,1342,1417,1468,1506,1510,1499,1493,1487,1475,1459,1449,1439,1412,1387,1371,1371,1362,1346,1328,1309,1318,1332,1348,1365,1380,1397,1412,1421,1424,1428,1426,1417,1407,1397,1384,1371,1356,1338,1315,1293,1271,1255,1243,1235,1227,1220,1214,1207,1201,1200,1209,1221,1224,1222,1222,1226,1217,1205,1193,1180,1175,1189,1204,1216,1224,1231,1237,1244,1251,1259,1264,1269,1274,1280,1281,1282,1277,1270,1263,1262,1263,1260,1264,1267,1273,1280,1286,1284,1279,1280,1279,1271,1263,1270,1262,1257,1251,1245,1245,1246,1244,1248,1252,1256,1260,1268,1272,1276,1282,1296,1314,1331,1343,1361,1390,1418,1466,1488,1504,1524,1550,1540,1522,1500,1475,1456,1445,1430,1415,1397,1378,1366,1354,1335,1317,1303,1290,1284,1275,1265,1257,1251,1245,1239,1230,1220,1225,1229,1229,1230,1234,1236,1245,1250,1241,1229,1219,1209,1198,1188,1174,1147,1154,1162,1170,1175,1175,1181,1189,1190,1196,1209,1221,1228,1234,1242,1250,1258,1265
769,772,777,782,792,802,816,841,862,874,887,900,918,935,950,968,988,1009,1033,1061,1100,1140,1187,1222,1253,1285,1324,1381,1423,1470,1500,1494,1472,1457,1453,1443,1430,1418,1413,1405,1387,1357,1337,1329,1319,1299,1303,1324,1339,1355,1372,1387,1400,1405,1409,1414,1416,1410,1404,1396,1385,1373,1360,1343,1314,1294,1279,1266,1252,1239,1230,1221,1215,1208,1203,1208,1214,1219,1228,1234,1237,1233,1230,1215,1202,1194,1182,1177,1201,1213,1224,1233,1240,1248,1257,1264,1271,1277,1283,1287,1291,1296,1298,1291,1282,1281,1282,1281,1276,1277,1279,1289,1300,1314,1318,1308,1307,1303,1297,1298,1297,1291,1285,1282,1283,1287,1285,1288,1293,1296,1296,1301,1304,1304,1305,1308,1319,1326,1334,1349,1378,1440,1460,1462,1485,1515,1546,1545,1523,1494,1472,1450,1431,1414,1396,1378,1363,1350,1338,1327,1316,1302,1290,1279,1269,1260,1254,1248,1241,1235,1228,1221,1210,1206,1209,1206,1204,1203,1219,1235,1237,1229,1217,1207,1193,1178,1165,1155,1156,1164,1172,1181,1188,1188,1197,1201,1205,1214,1222,1230,1239,1247,1256,1265,1274,1282
767,772,777,786,801,812,832,862,877,888,898,910,925,943,962,981,1003,1025,1053,1084,1122,1168,1205,1260,1301,1323,1365,1420,1455,1472,1475,1472,1459,1438,1419,1409,1398,1380,1383,1384,1374,1358,1340,1308,1289,1283,1305,1324,1341,1357,1374,1384,1390,1390,1399,1405,1405,1402,1393,1383,1371,1360,1341,1318,1303,1287,1275,1266,1254,1240,1232,1225,1219,1217,1216,1222,1227,1232,1238,1257,1255,1240,1228,1215,1203,1206,1191,1184,1199,1215,1230,1242,1248,1255,1262,1272,1281,1289,1297,1303,1307,1308,1303,1299,1295,1295,1294,1295,1296,1298,1299,1309,1327,1347,1360,1355,1340,1337,1335,1334,1334,1333,1336,1338,1331,1335,1340,1343,1340,1340,1340,1341,1341,1341,1340,1325,1328,1335,1348,1366,1396,1454,1478,1490,1503,1520,1528,1507,1487,1468,1449,1430,1411,1396,1382,1362,1346,1332,1318,1309,1300,1289,1277,1264,1256,1251,1244,1237,1229,1221,1211,1200,1187,1190,1192,1183,1181,1179,1190,1203,1201,1193,1180,1161,1161,1165,1163,1160,1158,1173,1185,1192,1198,1206,1212,1211,1215,1220,1229,1238,1252,1263,1273,1282,1288,1294
768,775,794,814,824,831,837,860,882,893,905,920,934,950,968,992,1020,1045,1073,1101,1123,1163,1200,1281,1336,1402,1424,1445,1455,1445,1443,1437,1419,1404,1388,1377,1363,1348,1350,1346,1342,1333,1321,1309,1290,1280,1305,1322,1340,1354,1366,1373,1376,1381,1389,1395,1391,1384,1374,1364,1354,1341,1331,1320,1299,1282,1271,1261,1251,1243,1233,1222,1220,1226,1234,1233,1238,1248,1261,1270,1254,1238,1227,1220,1220,1220,1200,1201,1213,1224,1233,1244,1260,1266,1274,1281,1290,1298,1309,1320,1323,1322,1317,1312,1310,1310,1311,1314,1317,1319,1326,1334,1347,1369,1385,1389,1380,1382,1387,1386,1386,1388,1401,1400,1383,1384,1391,1397,1400,1392,1400,1392,1370,1353,1339,1331,1338,1356,1381,1402,1419,1447,1480,1510,1510,1503,1487,1470,1455,1437,1417,1398,1385,1369,1356,1344,1328,1304,1292,1283,1275,1268,1259,1247,1239,1234,1229,1225,1218,1203,1196,1192,1202,1202,1201,1201,1201,1197,1192,1186,1181,1171,1172,1177,1180,1185,1186,1175,1163,1174,1191,1202,1213,1220,1220,1219,1225,1232,1240,1254,1274,1287,1297,1306,1313,1311
776,799,829,846,855,853,857,862,876,890,905,921,937,954,972,994,1023,1050,1077,1106,1138,1182,1253,1314,1362,1386,1398,1414,1432,1415,1410,1398,1381,1367,1353,1343,1343,1320,1317,1313,1307,1302,1296,1287,1280,1284,1304,1320,1333,1342,1352,1357,1368,1380,1381,1381,1376,1368,1360,1348,1337,1327,1318,1308,1297,1284,1274,1263,1256,1245,1236,1233,1240,1249,1258,1252,1256,1259,1270,1262,1255,1248,1240,1235,1230,1217,1200,1208,1220,1231,1241,1250,1262,1275,1285,1293,1302,1312,1323,1336,1341,1338,1331,1328,1328,1331,1334,1336,1340,1347,1356,1366,1380,1400,1420,1427,1431,1434,1440,1443,1448,1448,1451,1454,1443,1441,1444,1448,1454,1440,1426,1407,1388,1373,1365,1370,1378,1396,1411,1424,1434,1455,1503,1510,1505,1484,1465,1446,1429,1412,1397,1383,1366,1350,1335,1319,1310,1299,1280,1266,1257,1251,1244,1233,1220,1216,1211,1206,1200,1200,1202,1210,1217,1220,1221,1220,1216,1210,1208,1203,1198,1190,1193,1198,1201,1206,1197,1184,1170,1182,1192,1203,1218,1224,1230,1236,1242,1246,1253,1264,1284,1299,1316,1324,1328,1327
797,828,860,860,860,860,861,868,875,886,905,925,943,960,978,1005,1029,1060,1090,1125,1168,1251,1278,1296,1323,1342,1369,1400,1400,1383,1370,1360,1342,1329,1319,1318,1314,1298,1280,1275,1266,1260,1269,1263,1269,1288,1301,1309,1317,1329,1343,1354,1365,1375,1374,1365,1357,1349,1341,1331,1320,1310,1300,1293,1287,1280,1270,1259,1248,1241,1239,1239,1253,1266,1274,1280,1280,1280,1265,1260,1260,1260,1247,1233,1220,1218,1220,1219,1228,1238,1247,1256,1267,1278,1297,1307,1316,1330,1343,1353,1354,1353,1349,1350,1353,1356,1359,1366,1373,1379,1388,1399,1413,1436,1463,1477,1476,1483,1491,1498,1503,1499,1496,1508,1496,1490,1493,1492,1493,1494,1489,1483,1440,1409,1419,1422,1423,1418,1426,1436,1454,1475,1498,1497,1481,1468,1451,1428,1406,1391,1380,1365,1350,1335,1320,1305,1284,1273,1263,1254,1245,1238,1226,1220,1220,1219,1219,1218,1220,1220,1221,1223,1226,1228,1229,1226,1223,1221,1219,1218,1216,1212,1213,1215,1218,1220,1207,1193,1179,1188,1203,1215,1230,1243,1250,1248,1252,1265,1276,1284,1294,1307,1331,1342,1347,1352
828,852,860,860,860,858,859,860,870,889,918,938,955,973,1002,1024,1045,1076,1115,1191,1235,1237,1250,1274,1292,1322,1365,1377,1361,1345,1326,1311,1300,1298,1294,1288,1277,1267,1258,1240,1246,1264,1273,1280,1285,1290,1294,1301,1317,1328,1338,1349,1360,1366,1360,1349,1339,1330,1321,1312,1301,1293,1284,1278,1273,1268,1264,1257,1247,1240,1244,1248,1260,1273,1280,1280,1280,1270,1266,1262,1255,1246,1235,1225,1220,1224,1225,1219,1223,1240,1250,1263,1275,1289,1304,1320,1336,1348,1360,1367,1372,1371,1375,1378,1379,1384,1390,1396,1405,1413,1423,1434,1450,1471,1522,1529,1523,1533,1540,1547,1552,1549,1546,1542,1540,1545,1578,1598,1602,1553,1523,1497,1479,1460,1445,1440,1440,1452,1463,1475,1480,1480,1474,1467,1460,1444,1426,1405,1388,1369,1355,1346,1336,1321,1310,1295,1278,1260,1247,1231,1220,1220,1220,1220,1233,1243,1249,1256,1260,1246,1247,1247,1245,1243,1241,1239,1236,1235,1237,1239,1238,1240,1241,1243,1240,1238,1219,1202,1185,1198,1209,1220,1239,1251,1255,1255,1260,1274,1288,1302,1310,1322,1338,1351,1362,1371
829,855,853,848,840,840,850,860,876,898,922,947,968,998,1022,1044,1070,1117,1172,1194,1196,1201,1221,1239,1270,1309,1342,1333,1319,1302,1283,1262,1259,1267,1259,1245,1239,1240,1249,1265,1279,1290,1300,1305,1311,1316,1311,1313,1316,1324,1334,1342,1347,1350,1340,1328,1317,1307,1298,1289,1281,1277,1273,1269,1265,1261,1255,1250,1254,1249,1252,1254,1260,1275,1280,1280,1277,1273,1268,1260,1250,1245,1240,1225,1241,1237,1235,1233,1241,1251,1260,1275,1289,1303,1320,1336,1347,1357,1370,1381,1394,1396,1401,1406,1412,1416,1421,1428,1436,1445,1457,1469,1489,1517,1568,1584,1572,1575,1583,1592,1593,1593,1600,1634,1669,1671,1640,1607,1573,1543,1519,1499,1485,1477,1475,1481,1483,1486,1490,1486,1477,1468,1458,1444,1429,1413,1397,1398,1387,1368,1344,1320,1311,1300,1289,1275,1259,1246,1240,1238,1237,1236,1241,1254,1269,1280,1284,1290,1292,1272,1280,1277,1273,1268,1263,1260,1255,1253,1256,1258,1263,1275,1273,1265,1256,1247,1233,1211,1193,1203,1221,1233,1247,1261,1260,1269,1279,1295,1307,1318,1323,1329,1338,1358,1381,1400
818,839,832,837,842,849,857,868,884,907,934,966,993,1024,1053,1092,1122,1132,1140,1154,1157,1168,1189,1214,1253,1300,1298,1286,1271,1258,1245,1237,1239,1240,1226,1220,1244,1260,1273,1285,1297,1310,1322,1329,1337,1338,1329,1330,1334,1330,1331,1333,1335,1330,1317,1305,1295,1288,1280,1273,1266,1259,1258,1259,1259,1259,1259,1260,1263,1267,1272,1276,1275,1280,1280,1280,1274,1268,1260,1256,1251,1240,1239,1244,1250,1240,1240,1240,1250,1264,1275,1286,1298,1314,1333,1351,1366,1377,1387,1397,1415,1425,1433,1440,1444,1450,1456,1463,1471,1480,1503,1521,1544,1570,1600,1616,1619,1625,1640,1690,1667,1729,1718,1702,1666,1640,1624,1605,1583,1557,1541,1520,1507,1510,1500,1487,1490,1490,1482,1473,1460,1448,1435,1421,1402,1389,1377,1378,1360,1342,1326,1310,1295,1280,1270,1260,1247,1240,1240,1248,1251,1255,1270,1284,1294,1303,1311,1318,1317,1307,1301,1296,1291,1287,1283,1281,1282,1285,1286,1285,1294,1300,1292,1280,1266,1251,1237,1228,1213,1208,1231,1253,1267,1275,1280,1291,1302,1315,1324,1331,1337,1338,1341,1353,1382,1410
806,813,819,828,838,849,860,875,897,921,960,1000,1033,1063,1081,1087,1094,1086,1100,1108,1120,1139,1177,1220,1260,1260,1252,1242,1235,1226,1220,1220,1220,1220,1228,1246,1261,1278,1294,1308,1320,1333,1342,1349,1356,1353,1350,1351,1352,1349,1341,1331,1317,1306,1295,1285,1277,1269,1262,1258,1255,1252,1252,1254,1256,1258,1261,1265,1270,1275,1280,1286,1290,1291,1288,1285,1281,1276,1268,1257,1253,1253,1239,1250,1250,1248,1246,1247,1261,1276,1286,1297,1310,1324,1343,1361,1380,1393,1409,1427,1445,1457,1459,1469,1480,1487,1494,1503,1514,1536,1552,1578,1583,1613,1636,1663,1689,1721,1760,1760,1745,1712,1678,1652,1633,1616,1598,1580,1567,1554,1539,1519,1513,1497,1479,1480,1480,1472,1464,1453,1442,1426,1409,1391,1375,1360,1354,1347,1335,1320,1311,1300,1286,1274,1264,1252,1241,1240,1248,1261,1270,1278,1292,1305,1320,1325,1329,1334,1338,1336,1331,1319,1311,1304,1299,1306,1314,1316,1321,1319,1320,1316,1309,1301,1282,1256,1240,1228,1215,1228,1249,1269,1278,1287,1297,1308,1318,1328,1338,1346,1350,1350,1355,1366,1380,1400
806,812,818,832,846,858,873,890,913,942,970,993,1027,1037,1040,1044,1043,1040,1061,1068,1092,1135,1182,1192,1226,1222,1219,1210,1200,1195,1200,1203,1200,1223,1245,1262,1280,1298,1315,1329,1342,1354,1362,1366,1372,1372,1368,1365,1362,1355,1336,1318,1299,1289,1278,1269,1260,1255,1250,1249,1249,1249,1252,1257,1262,1266,1270,1275,1278,1284,1288,1293,1297,1296,1293,1289,1285,1281,1268,1262,1263,1259,1254,1256,1257,1254,1256,1260,1272,1283,1292,1300,1315,1336,1354,1370,1386,1402,1429,1451,1472,1494,1498,1505,1516,1526,1537,1547,1577,1594,1640,1633,1647,1683,1800,1800,1784,1741,1711,1694,1674,1650,1634,1620,1604,1584,1570,1555,1544,1535,1526,1512,1495,1473,1460,1465,1458,1450,1442,1427,1411,1397,1384,1371,1355,1345,1329,1321,1315,1309,1300,1287,1278,1272,1268,1262,1240,1248,1259,1274,1285,1294,1308,1326,1340,1349,1360,1359,1356,1355,1357,1348,1338,1327,1323,1335,1347,1349,1344,1335,1335,1330,1324,1316,1300,1278,1254,1239,1224,1240,1259,1280,1283,1288,1300,1316,1325,1334,1341,1347,1352,1358,1367,1377,1387,1398
801,813,824,836,857,872,885,901,927,946,957,986,1003,1005,1007,1012,1009,1012,1031,1060,1102,1139,1151,1158,1190,1189,1183,1177,1179,1180,1194,1210,1226,1241,1259,1275,1298,1319,1335,1349,1362,1372,1380,1380,1380,1377,1370,1362,1349,1334,1319,1304,1286,1273,1262,1257,1251,1247,1242,1244,1249,1254,1258,1263,1267,1271,1276,1280,1286,1293,1300,1305,1304,1301,1298,1295,1292,1285,1280,1278,1275,1271,1266,1267,1269,1267,1269,1276,1286,1297,1306,1315,1327,1344,1360,1379,1399,1419,1443,1465,1499,1526,1542,1550,1561,1572,1592,1620,1634,1658,1670,1687,1711,1790,1780,1757,1728,1707,1680,1660,1640,1620,1604,1592,1578,1558,1537,1518,1502,1498,1495,1484,1467,1451,1455,1446,1435,1429,1421,1404,1387,1374,1359,1346,1337,1330,1322,1312,1295,1276,1276,1274,1260,1259,1260,1258,1265,1274,1286,1302,1313,1323,1333,1348,1365,1372,1373,1372,1372,1370,1370,1373,1365,1358,1357,1360,1355,1350,1347,1345,1342,1335,1324,1312,1298,1284,1262,1240,1238,1251,1273,1284,1291,1298,1309,1323,1338,1347,1352,1357,1363,1371,1380,1388,1398,1416
802,808,814,823,854,870,883,898,921,921,940,957,969,968,972,982,985,1003,1029,1055,1080,1099,1103,1124,1144,1153,1151,1148,1155,1165,1196,1217,1235,1250,1269,1291,1313,1334,1350,1361,1366,1370,1369,1370,1364,1357,1349,1341,1329,1316,1303,1286,1272,1260,1256,1252,1246,1240,1240,1247,1253,1257,1263,1270,1276,1282,1287,1293,1299,1305,1310,1313,1311,1309,1304,1300,1294,1284,1283,1288,1285,1279,1278,1280,1279,1281,1284,1290,1295,1304,1315,1327,1340,1356,1370,1388,1412,1434,1458,1480,1505,1535,1577,1608,1620,1615,1647,1680,1672,1694,1736,1800,1787,1767,1743,1725,1704,1681,1662,1640,1619,1600,1580,1564,1549,1532,1511,1494,1480,1467,1457,1445,1439,1434,1430,1421,1409,1398,1388,1377,1360,1345,1331,1318,1310,1297,1300,1302,1288,1276,1267,1260,1268,1282,1291,1292,1297,1307,1318,1326,1340,1348,1358,1373,1381,1385,1386,1384,1380,1378,1382,1392,1390,1375,1364,1360,1359,1359,1355,1351,1342,1330,1317,1304,1291,1276,1258,1244,1240,1263,1279,1287,1294,1304,1316,1326,1336,1347,1356,1367,1380,1385,1390,1396,1409,1446
805,814,823,833,842,856,874,893,895,904,918,924,935,936,944,953,966,985,998,1014,1038,1061,1075,1091,1111,1124,1129,1130,1139,1170,1196,1204,1224,1246,1268,1289,1315,1340,1341,1340,1345,1344,1337,1350,1346,1342,1333,1321,1310,1296,1284,1270,1258,1253,1248,1244,1240,1243,1248,1253,1260,1266,1272,1277,1283,1291,1297,1303,1309,1313,1316,1318,1318,1317,1313,1307,1300,1294,1295,1299,1301,1297,1291,1292,1295,1298,1298,1299,1302,1314,1326,1340,1355,1371,1387,1406,1426,1446,1468,1493,1520,1548,1584,1618,1656,1674,1682,1707,1791,1820,1805,1782,1756,1736,1715,1697,1679,1665,1646,1620,1597,1579,1559,1540,1527,1510,1493,1478,1464,1452,1440,1430,1420,1412,1411,1401,1386,1373,1360,1341,1325,1300,1296,1290,1284,1280,1280,1280,1280,1282,1290,1300,1305,1316,1323,1328,1330,1329,1339,1342,1356,1376,1392,1397,1395,1394,1394,1395,1397,1403,1416,1435,1434,1421,1402,1393,1384,1364,1354,1346,1337,1324,1311,1298,1287,1286,1266,1242,1257,1270,1282,1300,1308,1316,1324,1333,1341,1347,1356,1376,1385,1391,1397,1411,1440,1496
821,825,830,834,838,840,857,867,874,882,892,901,912,921,934,942,950,960,989,1001,1002,1024,1041,1059,1077,1097,1112,1120,1131,1146,1160,1184,1203,1225,1245,1265,1288,1304,1313,1320,1314,1306,1308,1327,1341,1330,1317,1301,1290,1278,1267,1257,1248,1245,1243,1240,1240,1248,1255,1261,1267,1273,1280,1286,1293,1300,1306,1313,1320,1324,1329,1333,1333,1330,1325,1319,1314,1311,1313,1314,1320,1316,1306,1305,1308,1312,1315,1317,1318,1330,1344,1356,1371,1388,1406,1425,1445,1463,1484,1508,1538,1580,1620,1631,1656,1684,1715,1764,1800,1795,1772,1751,1732,1713,1693,1671,1652,1636,1621,1606,1587,1567,1542,1525,1505,1490,1477,1464,1455,1450,1444,1425,1403,1385,1380,1373,1362,1345,1320,1317,1315,1320,1324,1316,1310,1314,1304,1297,1308,1320,1325,1332,1341,1347,1353,1360,1362,1363,1370,1375,1381,1400,1402,1405,1402,1408,1414,1423,1434,1450,1475,1494,1483,1464,1436,1412,1386,1364,1352,1342,1331,1319,1310,1300,1300,1294,1277,1260,1259,1268,1283,1291,1299,1310,1322,1331,1340,1352,1359,1369,1380,1397,1417,1445,1495,1522
824,831,838,845,852,858,868,878,901,920,927,935,944,959,975,990,1003,1013,1028,1052,1066,1076,1079,1088,1102,1121,1137,1141,1127,1132,1138,1158,1180,1200,1215,1234,1261,1278,1280,1291,1281,1276,1290,1320,1322,1311,1298,1283,1270,1258,1248,1238,1234,1234,1237,1238,1243,1254,1263,1270,1277,1283,1290,1297,1303,1310,1316,1324,1334,1341,1343,1346,1345,1343,1341,1339,1336,1334,1333,1336,1340,1330,1320,1322,1326,1329,1333,1335,1335,1347,1359,1374,1390,1408,1426,1446,1467,1487,1513,1536,1567,1600,1635,1682,1697,1732,1791,1810,1790,1763,1740,1725,1708,1687,1670,1651,1632,1617,1600,1582,1568,1552,1532,1506,1489,1475,1461,1450,1438,1426,1414,1397,1381,1369,1355,1339,1324,1320,1323,1347,1350,1345,1340,1328,1329,1334,1339,1335,1342,1348,1351,1356,1365,1374,1381,1388,1396,1402,1405,1409,1403,1407,1411,1422,1432,1440,1457,1476,1502,1513,1502,1487,1469,1443,1419,1400,1384,1367,1353,1342,1329,1319,1312,1309,1304,1290,1275,1260,1262,1275,1283,1289,1296,1303,1313,1325,1340,1358,1368,1381,1399,1423,1463,1485,1507,1522
824,830,835,841,848,854,864,890,910,924,935,949,963,980,1000,1018,1035,1050,1067,1088,1105,1121,1131,1140,1149,1160,1167,1166,1155,1142,1139,1140,1161,1176,1193,1215,1239,1243,1261,1260,1256,1259,1281,1306,1300,1281,1268,1253,1238,1233,1224,1220,1220,1220,1227,1236,1247,1258,1268,1276,1285,1295,1303,1310,1318,1325,1331,1338,1344,1350,1356,1360,1360,1360,1360,1358,1358,1358,1360,1360,1362,1349,1336,1340,1343,1347,1351,1352,1355,1365,1377,1393,1410,1426,1446,1468,1489,1510,1535,1561,1592,1620,1662,1675,1707,1770,1789,1788,1756,1737,1718,1698,1677,1657,1639,1624,1611,1595,1577,1565,1551,1530,1506,1485,1472,1460,1449,1438,1429,1418,1397,1379,1370,1359,1339,1333,1344,1344,1351,1355,1359,1357,1351,1343,1349,1353,1357,1360,1365,1371,1376,1382,1389,1397,1410,1413,1417,1419,1419,1417,1427,1442,1452,1463,1480,1506,1530,1524,1513,1502,1487,1473,1455,1435,1417,1400,1384,1367,1350,1336,1326,1320,1319,1320,1312,1293,1277,1260,1269,1274,1280,1288,1297,1306,1316,1330,1346,1363,1383,1409,1435,1462,1491,1534,1550,1560
814,824,831,838,847,857,870,888,907,925,943,962,981,1004,1021,1041,1065,1088,1107,1122,1143,1165,1182,1191,1200,1203,1209,1201,1182,1163,1150,1140,1140,1148,1165,1192,1210,1220,1240,1233,1235,1247,1274,1284,1275,1255,1239,1229,1219,1214,1218,1221,1229,1238,1247,1257,1266,1276,1284,1291,1298,1306,1316,1324,1331,1338,1345,1353,1360,1367,1371,1370,1373,1383,1390,1388,1385,1382,1380,1380,1380,1368,1357,1358,1362,1366,1370,1372,1377,1387,1399,1415,1430,1447,1467,1489,1511,1534,1554,1576,1601,1639,1671,1720,1758,1793,1779,1751,1735,1724,1706,1689,1670,1649,1623,1602,1587,1577,1568,1549,1525,1501,1481,1472,1463,1452,1440,1431,1421,1402,1384,1372,1360,1344,1340,1355,1366,1375,1373,1373,1373,1369,1363,1360,1363,1368,1373,1378,1386,1397,1405,1413,1419,1423,1427,1431,1431,1433,1435,1445,1467,1496,1531,1540,1532,1520,1511,1500,1489,1478,1461,1448,1436,1425,1413,1399,1386,1368,1349,1330,1325,1328,1330,1320,1301,1289,1278,1269,1269,1280,1287,1294,1302,1311,1322,1335,1351,1372,1401,1429,1461,1497,1528,1555,1595,1625
812,827,840,847,855,864,876,893,911,934,957,984,1008,1027,1048,1073,1101,1125,1146,1162,1184,1207,1228,1241,1244,1244,1239,1230,1220,1202,1189,1172,1155,1140,1157,1173,1187,1197,1211,1213,1220,1238,1255,1258,1243,1231,1220,1202,1200,1212,1224,1237,1245,1253,1262,1270,1280,1291,1301,1306,1314,1321,1327,1334,1340,1350,1360,1369,1368,1373,1381,1386,1393,1400,1414,1418,1414,1408,1404,1401,1393,1385,1378,1378,1380,1384,1389,1394,1398,1411,1427,1446,1463,1478,1492,1515,1540,1558,1580,1607,1644,1683,1728,1760,1784,1762,1739,1724,1704,1702,1685,1667,1651,1631,1609,1589,1565,1556,1543,1518,1496,1483,1472,1462,1454,1446,1437,1423,1408,1390,1372,1350,1340,1340,1351,1381,1386,1391,1390,1387,1388,1385,1382,1386,1391,1394,1396,1401,1405,1416,1427,1435,1439,1440,1446,1451,1453,1457,1467,1490,1540,1540,1540,1526,1514,1500,1490,1481,1470,1460,1447,1435,1423,1415,1408,1401,1386,1362,1345,1330,1329,1340,1330,1313,1298,1288,1277,1270,1278,1286,1294,1302,1310,1318,1331,1346,1366,1388,1418,1449,1493,1526,1545,1568,1594,1624
822,842,848,854,860,872,888,907,927,951,983,1015,1041,1065,1088,1119,1160,1181,1207,1214,1228,1243,1257,1268,1279,1285,1284,1276,1265,1242,1215,1193,1173,1152,1148,1158,1167,1178,1191,1196,1199,1206,1216,1224,1222,1212,1200,1203,1217,1232,1246,1259,1267,1278,1286,1294,1300,1308,1315,1322,1330,1325,1341,1349,1357,1367,1379,1384,1385,1390,1401,1408,1414,1421,1429,1436,1442,1437,1423,1413,1405,1402,1400,1401,1404,1406,1412,1419,1428,1439,1456,1471,1488,1508,1527,1548,1579,1595,1626,1667,1700,1749,1800,1787,1764,1718,1700,1683,1676,1667,1656,1646,1634,1619,1595,1570,1545,1520,1506,1495,1485,1473,1460,1447,1438,1432,1423,1406,1390,1372,1360,1380,1377,1380,1381,1397,1403,1405,1402,1401,1402,1397,1401,1409,1416,1419,1419,1424,1430,1436,1444,1445,1449,1456,1466,1477,1489,1507,1529,1553,1553,1536,1520,1506,1495,1486,1477,1469,1460,1450,1439,1431,1423,1415,1408,1402,1384,1359,1340,1330,1334,1340,1327,1310,1297,1285,1280,1279,1288,1298,1304,1310,1314,1323,1339,1357,1380,1403,1433,1475,1508,1540,1574,1607,1630,1651
840,839,844,856,869,884,901,924,946,973,1009,1052,1084,1123,1161,1180,1194,1216,1237,1249,1257,1273,1291,1305,1318,1329,1335,1321,1291,1256,1231,1215,1197,1179,1161,1159,1160,1164,1169,1175,1180,1188,1200,1205,1200,1200,1200,1208,1225,1240,1251,1261,1271,1280,1292,1302,1308,1317,1324,1331,1340,1349,1353,1361,1368,1378,1386,1394,1398,1406,1413,1423,1440,1445,1450,1456,1462,1446,1435,1428,1421,1421,1423,1425,1426,1430,1435,1442,1454,1470,1486,1502,1517,1540,1560,1587,1617,1643,1660,1697,1748,1800,1777,1753,1731,1705,1677,1653,1639,1632,1623,1613,1603,1588,1569,1549,1529,1508,1491,1478,1468,1458,1448,1439,1431,1420,1400,1384,1380,1379,1400,1400,1399,1386,1400,1405,1418,1421,1421,1414,1420,1424,1429,1434,1440,1443,1446,1448,1451,1454,1456,1460,1471,1483,1502,1524,1541,1558,1580,1570,1553,1535,1520,1508,1497,1487,1477,1468,1457,1443,1435,1429,1422,1414,1405,1393,1375,1353,1335,1330,1340,1333,1320,1305,1291,1280,1284,1295,1302,1306,1310,1314,1318,1329,1344,1369,1400,1440,1462,1495,1515,1542,1576,1610,1642,1673
830,839,850,864,878,895,915,940,965,993,1040,1070,1127,1172,1194,1217,1234,1244,1254,1268,1285,1306,1328,1347,1361,1369,1353,1326,1309,1294,1273,1245,1222,1199,1185,1174,1166,1161,1160,1164,1170,1174,1179,1180,1187,1200,1214,1226,1237,1248,1260,1273,1285,1295,1310,1314,1317,1324,1332,1339,1350,1360,1361,1370,1375,1383,1393,1402,1408,1415,1427,1442,1454,1462,1467,1473,1478,1468,1457,1451,1447,1453,1453,1453,1457,1461,1460,1469,1480,1493,1512,1540,1553,1571,1606,1633,1640,1684,1718,1767,1818,1787,1760,1731,1708,1687,1663,1635,1605,1596,1602,1585,1564,1558,1542,1523,1504,1489,1478,1465,1456,1449,1442,1435,1422,1400,1410,1414,1413,1409,1403,1402,1401,1397,1406,1415,1422,1427,1428,1440,1445,1450,1456,1460,1459,1461,1464,1467,1472,1476,1481,1493,1512,1542,1567,1571,1585,1600,1600,1588,1560,1536,1520,1506,1494,1482,1471,1461,1449,1438,1430,1422,1415,1407,1399,1384,1363,1345,1333,1340,1338,1325,1313,1301,1283,1285,1295,1302,1307,1312,1316,1322,1332,1341,1360,1383,1418,1465,1508,1524,1536,1562,1605,1641,1668,1684
834,842,855,870,889,910,932,957,990,1025,1051,1122,1162,1179,1199,1226,1243,1248,1254,1261,1288,1316,1347,1383,1406,1395,1380,1364,1342,1316,1287,1263,1233,1220,1210,1200,1197,1189,1183,1181,1186,1191,1194,1193,1197,1207,1221,1232,1243,1254,1266,1278,1292,1303,1310,1321,1326,1333,1340,1348,1356,1366,1376,1387,1391,1398,1407,1417,1426,1436,1446,1456,1469,1482,1496,1501,1496,1486,1479,1480,1480,1481,1483,1484,1488,1491,1494,1495,1511,1530,1549,1582,1588,1612,1635,1665,1752,1775,1794,1815,1790,1756,1733,1710,1686,1663,1645,1626,1600,1571,1566,1553,1535,1519,1509,1497,1481,1468,1458,1450,1446,1440,1436,1430,1419,1420,1430,1430,1429,1422,1415,1410,1410,1414,1419,1429,1440,1445,1451,1457,1462,1468,1474,1478,1480,1484,1488,1493,1497,1501,1520,1538,1571,1591,1610,1605,1601,1592,1579,1565,1552,1536,1514,1496,1485,1474,1463,1454,1444,1437,1430,1424,1416,1406,1392,1373,1355,1340,1338,1340,1330,1319,1308,1298,1291,1293,1300,1306,1312,1317,1325,1333,1342,1355,1374,1397,1433,1476,1510,1546,1580,1606,1624,1645,1680,1678
836,848,863,883,903,926,954,993,1025,1070,1122,1144,1153,1163,1181,1196,1205,1211,1230,1262,1290,1316,1348,1376,1400,1408,1395,1377,1351,1324,1295,1274,1266,1257,1230,1231,1225,1218,1213,1211,1214,1215,1207,1199,1207,1220,1226,1236,1246,1257,1269,1283,1299,1310,1317,1325,1332,1337,1344,1352,1360,1374,1384,1392,1400,1409,1423,1434,1444,1454,1464,1477,1491,1498,1514,1531,1522,1516,1512,1515,1519,1521,1519,1518,1517,1520,1529,1539,1554,1574,1596,1643,1664,1660,1688,1824,1826,1835,1836,1811,1779,1747,1720,1691,1668,1644,1622,1599,1584,1563,1534,1515,1500,1488,1478,1464,1454,1447,1440,1438,1434,1431,1428,1426,1425,1431,1436,1439,1437,1435,1433,1432,1438,1440,1444,1458,1463,1467,1472,1477,1483,1492,1500,1502,1506,1517,1526,1533,1539,1557,1572,1589,1607,1620,1609,1595,1581,1564,1552,1540,1529,1518,1509,1499,1490,1481,1470,1462,1448,1436,1426,1417,1409,1400,1381,1362,1350,1340,1340,1334,1323,1312,1302,1299,1298,1302,1307,1313,1319,1327,1333,1344,1359,1373,1393,1424,1457,1482,1510,1547,1583,1624,1656,1680,1677,1663
841,855,874,895,917,942,987,1031,1097,1116,1124,1128,1129,1142,1156,1160,1154,1175,1194,1240,1269,1294,1330,1362,1381,1377,1371,1362,1348,1328,1315,1307,1293,1275,1263,1267,1268,1264,1261,1250,1241,1225,1214,1211,1218,1223,1229,1238,1249,1260,1272,1287,1302,1312,1321,1331,1336,1343,1350,1357,1364,1373,1387,1398,1408,1418,1430,1443,1455,1468,1481,1493,1500,1502,1511,1540,1546,1552,1551,1555,1561,1558,1553,1560,1559,1554,1573,1580,1588,1615,1655,1687,1706,1739,1794,1852,1876,1880,1861,1821,1780,1750,1720,1680,1652,1633,1617,1590,1560,1539,1522,1500,1485,1474,1464,1456,1450,1445,1440,1440,1440,1440,1437,1435,1435,1438,1442,1444,1445,1447,1448,1452,1457,1464,1475,1474,1478,1484,1492,1500,1512,1524,1538,1551,1564,1578,1576,1578,1576,1593,1620,1620,1620,1606,1591,1578,1564,1551,1539,1528,1518,1510,1504,1496,1486,1476,1464,1454,1444,1436,1428,1421,1407,1390,1370,1356,1344,1342,1340,1328,1317,1307,1300,1300,1300,1307,1313,1320,1326,1333,1340,1356,1372,1391,1417,1452,1483,1509,1541,1574,1606,1643,1676,1680,1667,1654
846,866,888,912,939,973,1036,1089,1090,1097,1094,1098,1106,1117,1108,1115,1133,1140,1171,1206,1254,1289,1319,1342,1354,1340,1335,1338,1334,1329,1325,1318,1309,1302,1300,1303,1303,1285,1265,1246,1230,1223,1219,1220,1223,1227,1233,1238,1249,1262,1277,1292,1304,1313,1323,1331,1336,1342,1350,1357,1371,1382,1397,1411,1422,1429,1436,1446,1458,1470,1481,1493,1507,1510,1518,1546,1581,1593,1592,1598,1600,1593,1594,1597,1596,1618,1631,1647,1681,1671,1673,1740,1800,1827,1856,1881,1871,1849,1824,1792,1758,1733,1704,1669,1637,1612,1593,1580,1558,1526,1499,1485,1474,1466,1458,1453,1448,1442,1440,1441,1446,1451,1451,1452,1453,1453,1460,1459,1459,1462,1468,1473,1480,1484,1489,1492,1501,1511,1521,1531,1544,1559,1573,1591,1612,1627,1627,1637,1644,1646,1634,1617,1601,1589,1577,1565,1554,1544,1534,1524,1516,1510,1503,1494,1484,1470,1459,1450,1441,1434,1426,1415,1391,1374,1360,1355,1349,1343,1334,1320,1312,1302,1300,1300,1305,1311,1316,1323,1332,1341,1352,1365,1390,1417,1449,1481,1496,1516,1543,1584,1624,1654,1680,1667,1651,1640
848,872,902,931,964,1043,1069,1070,1062,1062,1066,1072,1077,1068,1073,1087,1112,1146,1182,1220,1246,1267,1292,1321,1322,1312,1302,1304,1309,1310,1310,1315,1320,1317,1307,1295,1283,1263,1246,1230,1226,1223,1225,1227,1229,1233,1240,1247,1254,1263,1275,1289,1302,1311,1321,1330,1334,1337,1344,1357,1372,1387,1400,1413,1425,1434,1445,1458,1468,1479,1487,1496,1506,1518,1537,1562,1592,1627,1640,1654,1647,1657,1679,1687,1672,1668,1708,1710,1719,1720,1776,1845,1871,1900,1891,1864,1841,1815,1794,1765,1732,1697,1673,1650,1627,1595,1570,1546,1524,1503,1483,1472,1463,1457,1451,1448,1446,1443,1450,1456,1460,1463,1464,1464,1466,1470,1471,1472,1472,1471,1477,1493,1502,1506,1511,1515,1522,1543,1556,1576,1584,1597,1610,1624,1646,1676,1700,1698,1682,1656,1633,1615,1600,1586,1575,1565,1556,1548,1540,1525,1509,1496,1486,1480,1475,1470,1466,1459,1446,1433,1422,1397,1379,1369,1360,1353,1347,1339,1327,1316,1306,1300,1300,1303,1308,1313,1319,1329,1345,1364,1380,1396,1425,1463,1485,1497,1525,1552,1588,1616,1632,1661,1673,1658,1647,1636
861,891,919,982,1033,1040,1040,1034,1031,1030,1034,1041,1037,1040,1060,1084,1115,1147,1180,1205,1230,1252,1277,1300,1298,1292,1286,1281,1282,1282,1297,1313,1318,1300,1288,1273,1257,1240,1220,1215,1216,1216,1218,1222,1227,1234,1241,1248,1256,1264,1273,1281,1291,1301,1310,1321,1327,1332,1337,1349,1367,1380,1395,1411,1427,1441,1457,1468,1480,1494,1507,1514,1520,1533,1560,1590,1630,1674,1706,1727,1711,1738,1724,1750,1761,1759,1742,1792,1844,1861,1860,1876,1900,1882,1853,1833,1811,1787,1766,1744,1715,1676,1650,1627,1605,1581,1560,1538,1517,1499,1483,1471,1460,1454,1450,1450,1450,1449,1460,1465,1471,1477,1478,1475,1477,1483,1481,1483,1483,1482,1491,1500,1510,1520,1528,1537,1550,1574,1596,1618,1621,1638,1655,1670,1686,1715,1720,1709,1689,1660,1634,1613,1598,1597,1586,1577,1568,1558,1546,1535,1524,1505,1487,1478,1474,1472,1470,1462,1449,1433,1413,1398,1391,1381,1368,1357,1347,1335,1320,1309,1300,1300,1304,1309,1313,1319,1327,1336,1356,1380,1400,1419,1441,1470,1496,1526,1566,1587,1631,1663,1680,1675,1660,1649,1639,1630
866,898,943,974,1007,1007,1003,1000,999,998,1004,1008,1015,1026,1049,1078,1118,1147,1171,1193,1213,1238,1263,1274,1265,1252,1255,1254,1256,1275,1293,1310,1298,1280,1264,1247,1230,1214,1200,1199,1201,1208,1215,1222,1230,1238,1244,1251,1258,1263,1269,1275,1280,1291,1300,1308,1315,1322,1330,1344,1360,1373,1390,1410,1430,1449,1467,1484,1501,1510,1520,1532,1549,1566,1588,1624,1681,1720,1753,1780,1794,1804,1800,1793,1826,1836,1837,1840,1859,1888,1920,1907,1876,1852,1827,1805,1782,1758,1738,1708,1688,1662,1634,1604,1580,1565,1546,1526,1504,1487,1475,1464,1459,1458,1457,1462,1461,1458,1480,1482,1485,1487,1489,1489,1489,1492,1492,1494,1498,1503,1513,1522,1538,1553,1567,1580,1600,1633,1644,1646,1666,1695,1712,1731,1740,1738,1723,1700,1680,1665,1648,1628,1604,1580,1571,1563,1553,1543,1533,1525,1516,1506,1498,1490,1483,1476,1470,1464,1455,1443,1430,1417,1408,1400,1382,1359,1347,1333,1320,1314,1308,1305,1310,1315,1320,1331,1342,1355,1370,1391,1414,1440,1463,1484,1506,1535,1575,1640,1670,1673,1667,1659,1645,1636,1628,1621
865,890,920,955,973,971,969,973,971,974,982,992,1002,1019,1040,1071,1103,1136,1161,1183,1204,1226,1242,1241,1230,1227,1228,1233,1245,1264,1275,1277,1264,1248,1232,1219,1205,1195,1186,1188,1197,1200,1206,1217,1230,1227,1224,1233,1239,1254,1270,1279,1277,1281,1290,1299,1307,1317,1327,1338,1348,1359,1376,1399,1416,1437,1457,1484,1515,1538,1552,1564,1578,1595,1620,1666,1715,1745,1773,1807,1830,1845,1850,1872,1913,1924,1911,1900,1906,1920,1904,1875,1852,1829,1805,1779,1754,1728,1700,1680,1660,1639,1618,1587,1565,1547,1531,1517,1498,1485,1494,1500,1491,1488,1495,1493,1484,1478,1488,1495,1498,1499,1501,1503,1502,1504,1509,1515,1520,1528,1536,1551,1570,1588,1606,1621,1628,1641,1669,1703,1729,1760,1767,1757,1747,1735,1719,1699,1687,1670,1650,1630,1607,1593,1583,1565,1553,1540,1529,1518,1511,1504,1497,1488,1480,1473,1468,1465,1462,1451,1442,1432,1422,1408,1386,1356,1340,1328,1319,1316,1313,1312,1317,1324,1333,1343,1358,1372,1388,1411,1432,1462,1481,1504,1529,1553,1615,1654,1666,1660,1648,1638,1628,1620,1616,1610
853,871,898,936,938,934,942,945,951,960,971,983,998,1021,1050,1077,1104,1133,1158,1173,1191,1205,1210,1203,1198,1201,1200,1222,1242,1252,1247,1246,1233,1214,1200,1192,1186,1183,1180,1180,1181,1193,1202,1209,1217,1224,1232,1249,1263,1270,1277,1282,1285,1288,1302,1309,1315,1322,1330,1337,1346,1356,1372,1387,1403,1424,1448,1475,1503,1525,1544,1572,1612,1640,1687,1720,1746,1773,1799,1831,1856,1884,1920,1941,1942,1945,1944,1941,1928,1898,1868,1845,1820,1800,1777,1749,1727,1704,1683,1663,1642,1622,1606,1588,1571,1552,1538,1527,1521,1525,1530,1528,1522,1511,1505,1502,1498,1500,1505,1506,1509,1510,1511,1513,1514,1518,1528,1537,1545,1552,1559,1581,1605,1630,1621,1620,1628,1648,1675,1706,1738,1771,1780,1767,1740,1729,1716,1698,1685,1670,1650,1628,1600,1586,1569,1557,1550,1544,1527,1516,1511,1505,1498,1483,1474,1467,1461,1461,1461,1454,1440,1431,1422,1398,1372,1350,1335,1324,1320,1319,1318,1318,1323,1333,1343,1357,1374,1393,1410,1430,1462,1488,1516,1546,1583,1620,1654,1661,1659,1643,1631,1620,1612,1604,1600,1599
852,859,879,897,901,911,922,931,938,950,962,977,995,1020,1049,1076,1105,1128,1145,1159,1173,1180,1180,1171,1167,1176,1194,1221,1240,1235,1229,1222,1206,1193,1182,1176,1173,1174,1170,1175,1178,1189,1202,1222,1233,1243,1251,1260,1261,1260,1273,1283,1289,1295,1302,1310,1318,1326,1334,1342,1350,1358,1370,1382,1396,1411,1434,1460,1483,1499,1525,1554,1603,1645,1687,1724,1756,1788,1812,1833,1860,1921,1933,1941,1955,1970,1948,1924,1902,1870,1845,1816,1790,1767,1742,1723,1705,1688,1670,1649,1630,1613,1598,1585,1570,1555,1542,1547,1549,1547,1540,1534,1527,1521,1514,1506,1500,1518,1519,1520,1520,1521,1522,1525,1529,1540,1552,1567,1582,1592,1600,1626,1631,1630,1625,1626,1640,1664,1695,1727,1756,1800,1775,1764,1748,1720,1709,1698,1686,1671,1651,1630,1608,1588,1569,1555,1544,1534,1522,1511,1500,1491,1481,1471,1463,1460,1460,1457,1453,1444,1434,1424,1399,1375,1356,1343,1330,1320,1320,1320,1328,1337,1339,1352,1365,1379,1395,1420,1439,1463,1486,1512,1542,1573,1610,1642,1666,1659,1645,1628,1614,1605,1596,1589,1582,1580
850,858,868,878,889,900,909,916,926,940,955,974,994,1020,1049,1077,1103,1121,1129,1137,1148,1150,1140,1144,1150,1167,1193,1220,1230,1220,1205,1194,1183,1171,1160,1159,1160,1155,1159,1175,1186,1194,1204,1215,1232,1249,1262,1277,1280,1281,1281,1284,1290,1295,1300,1309,1316,1325,1333,1341,1351,1360,1372,1384,1396,1409,1422,1440,1461,1485,1515,1557,1606,1647,1680,1704,1729,1763,1779,1800,1836,1900,1906,1930,1954,1944,1912,1882,1855,1835,1805,1779,1758,1740,1722,1703,1684,1672,1663,1650,1636,1619,1606,1595,1585,1571,1570,1565,1560,1560,1548,1538,1537,1533,1521,1520,1531,1533,1532,1526,1528,1533,1535,1540,1548,1560,1575,1594,1612,1625,1636,1652,1651,1645,1642,1648,1660,1675,1696,1726,1760,1792,1783,1759,1745,1728,1706,1692,1681,1666,1650,1633,1615,1598,1580,1563,1535,1520,1510,1499,1484,1474,1465,1460,1458,1457,1455,1453,1449,1439,1426,1404,1382,1360,1346,1335,1323,1320,1330,1342,1350,1358,1357,1368,1384,1401,1425,1452,1476,1496,1521,1553,1573,1596,1624,1657,1654,1643,1630,1617,1602,1593,1586,1578,1571,1567
847,860,868,877,885,893,901,911,921,936,956,976,997,1021,1050,1078,1100,1112,1118,1119,1121,1120,1117,1129,1148,1168,1190,1208,1204,1189,1175,1164,1153,1145,1132,1129,1136,1145,1165,1181,1189,1197,1209,1222,1231,1241,1251,1264,1280,1292,1301,1300,1298,1299,1304,1313,1321,1329,1337,1345,1354,1364,1375,1389,1403,1416,1432,1446,1460,1476,1499,1534,1571,1603,1636,1668,1704,1733,1755,1785,1845,1881,1894,1917,1940,1920,1888,1853,1820,1796,1773,1748,1728,1712,1699,1683,1665,1650,1647,1644,1640,1628,1618,1609,1598,1591,1579,1574,1569,1564,1555,1550,1542,1533,1520,1535,1545,1550,1548,1542,1545,1548,1550,1560,1574,1589,1605,1625,1644,1655,1670,1686,1682,1677,1678,1682,1689,1697,1713,1743,1780,1779,1767,1754,1740,1722,1709,1695,1682,1667,1649,1626,1608,1592,1577,1562,1540,1520,1500,1487,1476,1468,1460,1457,1454,1451,1449,1449,1445,1441,1426,1404,1380,1347,1339,1335,1333,1338,1349,1358,1370,1379,1374,1385,1402,1421,1447,1472,1500,1522,1543,1575,1620,1638,1658,1660,1646,1632,1617,1607,1596,1586,1575,1565,1558,1554
844,854,862,872,880,887,895,905,920,937,955,979,1006,1030,1055,1080,1098,1103,1105,1101,1102,1095,1103,1119,1134,1150,1169,1183,1174,1160,1148,1137,1125,1110,1117,1135,1150,1162,1172,1182,1192,1202,1213,1224,1236,1247,1258,1267,1276,1288,1304,1309,1313,1320,1323,1327,1333,1340,1349,1360,1371,1382,1393,1405,1418,1432,1448,1464,1480,1500,1532,1569,1612,1643,1676,1702,1721,1738,1765,1798,1836,1862,1887,1924,1925,1900,1872,1838,1801,1771,1746,1724,1704,1686,1671,1659,1653,1646,1640,1638,1635,1632,1620,1620,1611,1598,1589,1583,1575,1568,1562,1553,1544,1533,1537,1550,1554,1551,1551,1554,1557,1561,1572,1584,1596,1615,1636,1658,1680,1692,1707,1725,1733,1726,1720,1721,1730,1738,1757,1780,1774,1763,1753,1744,1733,1722,1706,1693,1680,1664,1649,1630,1612,1596,1577,1557,1540,1525,1506,1490,1478,1468,1460,1457,1455,1452,1454,1456,1459,1438,1416,1391,1367,1349,1340,1340,1348,1351,1356,1370,1382,1387,1395,1408,1424,1445,1472,1500,1531,1562,1587,1620,1660,1670,1663,1650,1636,1620,1604,1594,1585,1575,1564,1556,1549,1542
842,852,861,867,873,879,890,903,920,938,956,983,1012,1036,1058,1077,1087,1096,1084,1080,1071,1076,1095,1107,1118,1131,1144,1152,1139,1126,1118,1110,1102,1099,1117,1142,1160,1168,1177,1186,1196,1206,1216,1225,1235,1247,1260,1270,1282,1298,1308,1313,1320,1335,1347,1349,1352,1359,1369,1380,1392,1404,1419,1431,1443,1454,1469,1484,1501,1519,1546,1582,1627,1661,1700,1730,1757,1783,1817,1839,1856,1877,1910,1928,1905,1870,1836,1806,1775,1750,1725,1703,1684,1670,1664,1659,1656,1653,1648,1642,1640,1642,1640,1626,1613,1599,1593,1580,1574,1567,1558,1549,1540,1541,1550,1556,1560,1556,1557,1563,1570,1578,1592,1607,1623,1646,1674,1692,1713,1738,1760,1775,1790,1780,1774,1781,1794,1800,1791,1778,1768,1758,1747,1738,1731,1725,1716,1698,1683,1667,1653,1638,1619,1593,1574,1562,1547,1535,1525,1510,1487,1476,1471,1465,1460,1456,1462,1470,1460,1432,1406,1377,1365,1346,1340,1360,1366,1363,1370,1377,1390,1399,1405,1420,1440,1461,1487,1516,1550,1582,1612,1648,1660,1658,1647,1636,1624,1610,1597,1585,1573,1562,1554,1547,1540,1535
844,849,854,859,866,874,887,905,929,952,977,1000,1022,1042,1060,1067,1074,1081,1072,1055,1044,1062,1078,1082,1087,1085,1111,1118,1107,1098,1094,1084,1080,1088,1099,1130,1153,1171,1183,1192,1202,1210,1218,1228,1238,1252,1265,1278,1286,1293,1304,1317,1331,1347,1363,1375,1377,1380,1394,1406,1417,1429,1443,1455,1471,1485,1497,1510,1529,1548,1580,1610,1640,1649,1687,1715,1760,1840,1860,1872,1893,1916,1930,1909,1886,1854,1814,1786,1760,1734,1712,1690,1678,1669,1663,1660,1652,1650,1650,1650,1650,1650,1645,1626,1606,1588,1579,1575,1571,1566,1561,1557,1553,1549,1551,1557,1560,1561,1569,1577,1590,1604,1620,1633,1652,1673,1694,1716,1752,1784,1825,1860,1852,1840,1820,1810,1803,1792,1779,1769,1760,1753,1746,1738,1724,1708,1693,1677,1661,1649,1634,1617,1600,1585,1572,1562,1552,1544,1535,1523,1506,1491,1479,1472,1466,1459,1465,1470,1454,1423,1392,1369,1346,1340,1355,1369,1378,1378,1379,1385,1402,1417,1425,1435,1449,1474,1512,1531,1560,1592,1629,1660,1659,1649,1637,1624,1613,1602,1591,1580,1569,1558,1548,1540,1535,1530
838,843,847,852,857,869,888,910,935,957,988,1012,1029,1043,1051,1060,1062,1064,1063,1042,1020,1041,1061,1060,1048,1045,1058,1054,1065,1060,1064,1075,1095,1114,1140,1144,1140,1153,1165,1176,1193,1211,1226,1240,1250,1260,1267,1276,1286,1298,1310,1322,1336,1354,1378,1398,1408,1405,1417,1430,1444,1459,1472,1484,1500,1513,1530,1545,1567,1604,1611,1641,1661,1683,1700,1728,1792,1833,1858,1887,1922,1927,1911,1888,1864,1833,1805,1774,1746,1727,1709,1702,1692,1680,1670,1667,1665,1665,1670,1667,1650,1635,1620,1599,1590,1584,1579,1574,1570,1567,1564,1560,1552,1550,1556,1561,1566,1571,1578,1589,1605,1628,1648,1665,1686,1706,1734,1757,1794,1835,1876,1859,1840,1826,1810,1797,1782,1775,1768,1762,1751,1736,1713,1694,1677,1665,1656,1645,1636,1627,1619,1609,1599,1592,1584,1570,1556,1541,1534,1527,1518,1502,1490,1480,1477,1473,1470,1452,1420,1397,1378,1365,1354,1357,1370,1385,1396,1402,1409,1414,1423,1440,1451,1463,1473,1487,1520,1556,1588,1621,1660,1657,1650,1640,1628,1616,1606,1597,1588,1577,1566,1555,1544,1538,1533,1530
842,846,849,853,857,868,890,915,943,969,1002,1021,1030,1040,1041,1043,1045,1044,1038,1029,1000,1018,1041,1032,1020,1007,1017,1045,1063,1084,1098,1101,1101,1130,1150,1162,1168,1178,1179,1179,1185,1200,1212,1231,1244,1252,1260,1274,1289,1303,1317,1329,1342,1362,1390,1414,1432,1438,1441,1455,1470,1485,1500,1515,1530,1548,1560,1586,1607,1632,1695,1705,1708,1718,1736,1786,1823,1830,1855,1892,1900,1897,1885,1867,1840,1812,1789,1766,1745,1736,1727,1713,1702,1690,1686,1680,1674,1668,1657,1637,1621,1606,1594,1583,1580,1579,1579,1574,1571,1567,1563,1559,1557,1557,1562,1568,1575,1584,1597,1611,1630,1648,1673,1698,1716,1739,1766,1796,1832,1871,1860,1844,1827,1813,1795,1776,1759,1751,1743,1726,1710,1697,1691,1678,1666,1657,1649,1640,1633,1625,1614,1598,1587,1574,1560,1548,1537,1527,1518,1513,1508,1502,1493,1483,1475,1467,1457,1426,1400,1380,1373,1366,1357,1359,1380,1400,1405,1411,1417,1426,1436,1453,1467,1476,1488,1503,1526,1552,1587,1628,1660,1653,1640,1628,1616,1605,1596,1588,1580,1570,1560,1553,1546,1540,1539,1539
848,851,854,856,858,872,896,921,949,981,1003,1013,1021,1024,1020,1022,1017,1009,1001,992,981,995,1007,1005,1000,1003,1028,1049,1074,1095,1114,1132,1143,1142,1140,1168,1185,1195,1204,1213,1209,1200,1223,1238,1248,1260,1273,1285,1297,1308,1321,1344,1365,1389,1413,1432,1447,1463,1477,1487,1498,1514,1528,1546,1561,1581,1607,1620,1654,1703,1716,1745,1776,1778,1784,1820,1816,1815,1829,1846,1852,1846,1843,1836,1816,1791,1772,1757,1745,1725,1717,1711,1699,1691,1684,1667,1652,1638,1624,1610,1596,1589,1585,1581,1579,1577,1576,1574,1572,1567,1560,1560,1565,1570,1575,1581,1591,1603,1622,1641,1655,1678,1708,1729,1747,1778,1801,1845,1880,1870,1851,1830,1811,1790,1772,1757,1748,1736,1719,1705,1699,1695,1692,1681,1666,1650,1635,1622,1611,1600,1595,1586,1575,1561,1554,1546,1538,1531,1526,1523,1521,1504,1492,1482,1476,1470,1454,1423,1401,1391,1384,1373,1357,1366,1391,1405,1416,1424,1430,1436,1446,1459,1478,1495,1505,1515,1535,1560,1589,1631,1658,1643,1629,1616,1605,1596,1588,1580,1572,1563,1557,1554,1549,1546,1542,1536
852,856,858,862,873,885,908,932,956,982,992,1001,1004,1005,998,992,985,979,978,968,963,972,977,979,993,1008,1020,1052,1078,1102,1126,1150,1164,1170,1179,1172,1181,1207,1221,1230,1240,1239,1231,1235,1254,1272,1287,1301,1310,1321,1343,1365,1386,1403,1426,1446,1463,1482,1507,1530,1537,1543,1556,1573,1591,1619,1649,1682,1707,1730,1794,1827,1843,1839,1825,1810,1793,1785,1790,1797,1799,1795,1791,1787,1782,1772,1756,1743,1731,1720,1711,1710,1704,1686,1657,1641,1624,1611,1600,1600,1593,1590,1586,1580,1577,1575,1573,1571,1567,1562,1560,1566,1571,1575,1583,1592,1604,1618,1637,1662,1689,1713,1738,1775,1802,1827,1853,1878,1880,1864,1844,1819,1804,1782,1767,1752,1734,1719,1714,1710,1709,1695,1685,1674,1658,1644,1630,1616,1603,1594,1584,1577,1571,1568,1566,1563,1559,1548,1537,1527,1514,1500,1489,1480,1479,1486,1481,1442,1422,1409,1393,1373,1357,1372,1386,1396,1408,1420,1429,1439,1452,1468,1492,1513,1526,1536,1552,1572,1603,1642,1646,1631,1618,1605,1595,1587,1578,1570,1562,1557,1554,1549,1545,1539,1529,1519
856,861,867,873,879,897,925,942,957,969,981,982,979,977,967,959,957,953,955,958,965,985,995,1005,1019,1035,1058,1067,1074,1087,1108,1133,1155,1172,1187,1201,1199,1210,1230,1246,1259,1272,1270,1261,1259,1275,1295,1318,1332,1350,1373,1393,1408,1421,1442,1463,1484,1506,1529,1551,1571,1585,1596,1611,1627,1656,1680,1723,1726,1786,1838,1835,1816,1800,1782,1776,1767,1759,1752,1750,1753,1756,1754,1751,1747,1744,1740,1730,1718,1710,1705,1700,1679,1661,1641,1625,1619,1620,1615,1608,1601,1600,1594,1584,1582,1579,1573,1567,1562,1560,1565,1571,1580,1588,1596,1607,1624,1643,1670,1706,1726,1742,1770,1805,1842,1878,1900,1893,1880,1860,1840,1814,1797,1784,1760,1739,1721,1719,1720,1714,1699,1685,1672,1658,1646,1635,1623,1608,1594,1584,1577,1572,1568,1565,1562,1554,1540,1534,1528,1522,1512,1502,1494,1487,1492,1499,1481,1451,1432,1414,1390,1372,1359,1374,1386,1396,1408,1421,1432,1446,1465,1483,1503,1524,1543,1560,1578,1598,1638,1640,1634,1620,1607,1596,1588,1578,1569,1560,1552,1545,1538,1533,1527,1520,1511,1502
857,862,867,873,879,907,924,934,942,949,954,944,945,940,939,940,940,949,971,985,996,1022,1043,1057,1054,1062,1080,1096,1112,1118,1129,1148,1161,1180,1198,1212,1222,1218,1238,1261,1280,1287,1287,1291,1298,1300,1299,1329,1353,1373,1392,1411,1429,1448,1467,1482,1508,1531,1551,1574,1598,1623,1636,1664,1671,1698,1728,1750,1768,1811,1830,1804,1780,1762,1752,1744,1738,1729,1719,1719,1719,1719,1718,1720,1725,1728,1732,1731,1722,1713,1690,1673,1660,1644,1637,1633,1626,1623,1618,1609,1600,1603,1601,1595,1588,1581,1569,1564,1560,1563,1569,1583,1591,1599,1612,1628,1654,1685,1722,1723,1744,1781,1817,1847,1879,1900,1900,1888,1870,1853,1839,1827,1813,1793,1777,1763,1752,1746,1732,1707,1690,1676,1660,1647,1635,1624,1614,1604,1597,1592,1586,1577,1569,1563,1556,1548,1540,1535,1530,1526,1521,1513,1500,1499,1501,1500,1477,1450,1427,1405,1387,1377,1370,1381,1392,1404,1415,1428,1440,1456,1472,1490,1513,1535,1562,1582,1604,1636,1640,1633,1620,1608,1596,1584,1576,1569,1562,1555,1548,1541,1529,1516,1506,1505,1497,1486
857,860,867,871,876,883,900,910,914,905,910,914,918,923,931,940,971,1000,1014,1031,1038,1039,1062,1070,1069,1069,1082,1097,1111,1126,1142,1155,1168,1179,1191,1207,1237,1247,1239,1265,1289,1293,1296,1302,1309,1319,1324,1338,1352,1363,1398,1426,1447,1467,1490,1516,1532,1554,1577,1596,1620,1646,1681,1717,1734,1750,1778,1832,1880,1840,1805,1777,1754,1735,1721,1717,1714,1706,1700,1696,1692,1692,1696,1699,1710,1717,1727,1729,1725,1706,1684,1672,1663,1656,1650,1645,1638,1626,1620,1619,1617,1617,1613,1607,1600,1584,1569,1563,1563,1570,1583,1601,1608,1616,1632,1656,1685,1733,1757,1767,1777,1797,1824,1851,1882,1901,1906,1902,1885,1869,1853,1838,1824,1812,1800,1788,1775,1760,1742,1725,1699,1684,1668,1648,1638,1633,1625,1616,1608,1601,1597,1593,1588,1581,1580,1571,1560,1544,1537,1531,1526,1521,1507,1508,1508,1493,1473,1448,1424,1403,1383,1380,1379,1380,1396,1409,1421,1434,1446,1458,1475,1500,1528,1563,1588,1614,1640,1640,1632,1619,1608,1597,1585,1577,1572,1567,1561,1554,1546,1535,1520,1509,1498,1490,1486,1478
864,871,878,881,900,906,909,904,920,932,937,954,975,984,990,997,986,989,1010,1037,1052,1067,1070,1072,1076,1080,1088,1097,1112,1127,1141,1159,1180,1187,1195,1210,1237,1260,1266,1260,1282,1292,1300,1308,1317,1329,1340,1354,1370,1393,1420,1435,1451,1476,1505,1528,1551,1576,1595,1623,1650,1681,1710,1744,1767,1804,1880,1884,1880,1818,1791,1766,1743,1722,1711,1702,1689,1676,1670,1670,1670,1669,1674,1681,1693,1708,1725,1740,1718,1700,1692,1683,1676,1668,1660,1652,1643,1638,1634,1632,1627,1624,1621,1611,1599,1582,1569,1567,1568,1580,1591,1604,1615,1632,1655,1695,1724,1752,1771,1787,1804,1821,1844,1872,1898,1917,1929,1920,1899,1880,1865,1843,1824,1810,1795,1780,1767,1752,1735,1719,1707,1695,1679,1667,1656,1649,1643,1634,1617,1600,1596,1592,1588,1585,1584,1583,1572,1551,1537,1528,1519,1510,1510,1510,1507,1488,1469,1440,1416,1395,1380,1380,1379,1385,1396,1407,1417,1433,1455,1477,1506,1540,1568,1591,1621,1650,1644,1632,1619,1605,1601,1583,1577,1572,1567,1562,1555,1548,1540,1528,1515,1500,1492,1482,1473,1466
865,880,900,898,910,935,946,953,957,949,955,957,968,983,996,1007,1017,1020,1023,1042,1051,1062,1072,1080,1086,1093,1098,1107,1117,1135,1149,1162,1175,1194,1206,1215,1225,1237,1254,1282,1290,1297,1305,1314,1325,1338,1352,1367,1382,1400,1426,1446,1475,1497,1515,1536,1561,1586,1614,1647,1678,1705,1742,1767,1793,1872,1890,1883,1853,1813,1784,1762,1742,1729,1716,1704,1687,1678,1674,1668,1659,1659,1666,1675,1689,1710,1732,1738,1720,1711,1701,1693,1684,1675,1665,1656,1648,1641,1640,1640,1636,1630,1624,1615,1602,1580,1570,1570,1574,1585,1599,1610,1620,1647,1675,1717,1744,1766,1789,1808,1827,1845,1867,1891,1911,1930,1926,1906,1885,1868,1851,1831,1816,1800,1788,1774,1758,1741,1724,1708,1696,1687,1677,1664,1655,1649,1642,1637,1633,1625,1610,1596,1590,1595,1590,1588,1571,1547,1533,1523,1512,1508,1509,1510,1506,1487,1463,1436,1412,1383,1380,1380,1380,1390,1398,1411,1425,1443,1466,1492,1538,1580,1582,1604,1626,1647,1635,1620,1606,1594,1583,1576,1570,1564,1559,1553,1548,1543,1533,1520,1504,1492,1482,1472,1462,1455
873,898,919,925,931,948,969,979,961,960,965,974,984,992,998,1008,1019,1030,1041,1049,1058,1067,1076,1085,1092,1100,1109,1120,1133,1143,1151,1158,1171,1186,1199,1211,1223,1236,1249,1268,1300,1308,1315,1324,1335,1349,1364,1381,1396,1413,1433,1456,1482,1505,1529,1554,1586,1624,1649,1676,1707,1737,1765,1795,1860,1890,1885,1871,1843,1811,1788,1771,1753,1732,1714,1698,1687,1675,1660,1650,1649,1655,1665,1679,1695,1710,1725,1735,1724,1714,1705,1697,1689,1681,1675,1670,1664,1657,1647,1644,1641,1635,1628,1622,1604,1579,1571,1570,1578,1593,1606,1616,1635,1660,1708,1746,1757,1782,1809,1829,1849,1867,1888,1907,1922,1927,1902,1887,1872,1856,1838,1822,1809,1796,1784,1767,1748,1731,1717,1708,1697,1679,1669,1660,1654,1646,1637,1630,1625,1620,1618,1615,1613,1612,1607,1592,1572,1554,1538,1527,1516,1501,1505,1510,1497,1478,1453,1424,1394,1380,1381,1386,1392,1398,1407,1417,1436,1457,1483,1518,1555,1591,1630,1660,1649,1638,1624,1609,1595,1580,1574,1567,1561,1556,1551,1546,1541,1531,1520,1504,1490,1478,1469,1460,1453,1447
891,917,941,962,972,981,981,980,981,984,982,983,995,1004,1009,1013,1021,1033,1044,1056,1065,1073,1080,1090,1099,1108,1116,1126,1136,1145,1156,1165,1173,1183,1195,1206,1217,1231,1247,1271,1300,1314,1325,1336,1349,1364,1379,1395,1414,1430,1449,1471,1497,1518,1548,1574,1609,1640,1676,1707,1742,1771,1900,1847,1900,1895,1878,1859,1839,1820,1792,1755,1714,1696,1684,1671,1658,1650,1645,1640,1645,1654,1662,1673,1686,1700,1714,1727,1730,1721,1713,1703,1696,1690,1684,1676,1663,1662,1664,1654,1642,1634,1627,1619,1604,1595,1588,1581,1579,1596,1613,1634,1660,1689,1723,1732,1745,1771,1805,1838,1869,1891,1908,1921,1921,1905,1887,1872,1856,1840,1823,1813,1803,1789,1773,1757,1744,1720,1709,1698,1687,1675,1662,1653,1646,1639,1634,1629,1630,1630,1627,1624,1620,1620,1612,1591,1571,1552,1538,1528,1515,1500,1499,1495,1481,1460,1438,1408,1390,1384,1390,1396,1403,1411,1418,1432,1451,1472,1502,1541,1588,1617,1655,1654,1640,1627,1615,1603,1587,1576,1568,1561,1555,1549,1543,1536,1527,1517,1503,1490,1478,1467,1459,1453,1447,1440
920,947,973,995,1002,1004,999,1000,1002,998,999,1003,1010,1016,1021,1024,1033,1044,1052,1060,1068,1076,1084,1092,1101,1112,1123,1132,1141,1151,1160,1169,1178,1188,1199,1208,1217,1230,1249,1270,1295,1321,1333,1346,1359,1375,1391,1412,1432,1451,1469,1485,1502,1534,1560,1589,1640,1685,1715,1738,1769,1843,1901,1895,1885,1872,1860,1846,1813,1791,1746,1695,1678,1666,1657,1650,1644,1640,1640,1640,1651,1656,1662,1670,1678,1691,1706,1722,1740,1730,1720,1713,1706,1697,1686,1680,1679,1683,1683,1673,1661,1650,1639,1626,1617,1610,1603,1595,1589,1608,1628,1660,1700,1705,1711,1717,1732,1760,1792,1833,1876,1908,1930,1930,1910,1891,1873,1856,1840,1820,1810,1800,1790,1777,1756,1738,1730,1722,1707,1694,1680,1670,1659,1650,1643,1644,1646,1642,1634,1628,1625,1622,1620,1620,1610,1588,1565,1543,1532,1522,1507,1497,1492,1486,1470,1442,1415,1399,1392,1391,1398,1404,1411,1417,1430,1448,1467,1490,1519,1558,1595,1622,1650,1646,1634,1622,1610,1598,1582,1575,1569,1563,1555,1545,1534,1520,1512,1504,1491,1476,1465,1456,1450,1446,1440,1437
934,966,991,1004,1009,1016,1020,1021,1018,1014,1017,1023,1028,1034,1038,1041,1047,1052,1058,1065,1073,1082,1090,1097,1108,1120,1127,1134,1142,1152,1161,1170,1180,1188,1197,1208,1222,1234,1244,1260,1292,1324,1344,1356,1370,1386,1404,1426,1447,1470,1491,1512,1528,1544,1579,1626,1660,1689,1741,1777,1886,1900,1879,1858,1864,1843,1819,1817,1802,1720,1687,1669,1656,1647,1640,1635,1634,1637,1638,1650,1651,1650,1653,1661,1671,1682,1696,1713,1733,1732,1725,1719,1710,1700,1698,1698,1698,1697,1692,1683,1672,1662,1651,1640,1629,1621,1612,1600,1599,1620,1646,1676,1698,1699,1701,1714,1731,1757,1790,1832,1869,1906,1930,1918,1900,1880,1860,1841,1828,1815,1802,1792,1783,1764,1738,1726,1715,1704,1692,1679,1666,1658,1652,1649,1647,1649,1650,1650,1649,1637,1626,1620,1618,1624,1609,1589,1566,1546,1532,1521,1505,1498,1500,1488,1465,1446,1427,1400,1397,1397,1406,1415,1421,1432,1445,1463,1484,1507,1535,1567,1590,1618,1643,1639,1630,1620,1606,1593,1580,1573,1566,1559,1547,1536,1524,1515,1505,1492,1478,1464,1456,1451,1446,1442,1438,1434
947,975,995,1006,1014,1022,1027,1031,1031,1030,1035,1040,1046,1052,1052,1051,1058,1061,1065,1073,1080,1087,1094,1102,1110,1119,1129,1140,1146,1153,1161,1171,1181,1194,1212,1223,1228,1235,1246,1265,1296,1339,1373,1400,1410,1409,1418,1437,1460,1483,1508,1532,1557,1580,1605,1640,1672,1720,1756,1805,1885,1897,1871,1838,1825,1816,1801,1745,1697,1677,1662,1645,1633,1627,1624,1621,1624,1633,1640,1640,1640,1651,1659,1665,1672,1679,1697,1719,1730,1740,1740,1727,1719,1714,1713,1714,1720,1722,1719,1705,1695,1686,1673,1655,1640,1635,1632,1623,1616,1637,1672,1690,1693,1697,1701,1717,1737,1764,1796,1830,1871,1903,1920,1909,1897,1879,1858,1842,1827,1815,1805,1788,1769,1752,1737,1719,1705,1693,1683,1675,1667,1659,1650,1650,1650,1651,1653,1649,1642,1637,1631,1625,1629,1630,1614,1593,1571,1553,1539,1532,1520,1507,1502,1484,1459,1440,1420,1409,1400,1404,1418,1423,1431,1444,1459,1478,1498,1523,1564,1588,1607,1640,1641,1635,1626,1615,1602,1588,1575,1564,1554,1545,1534,1523,1513,1504,1493,1477,1463,1455,1449,1444,1442,1440,1435,1427
953,975,990,1003,1016,1026,1034,1041,1046,1050,1055,1061,1072,1070,1062,1058,1062,1068,1074,1081,1088,1095,1102,1111,1118,1128,1136,1143,1149,1155,1163,1176,1195,1205,1214,1221,1230,1238,1252,1269,1296,1341,1380,1413,1421,1423,1440,1455,1475,1500,1522,1546,1572,1597,1615,1672,1725,1745,1788,1880,1900,1907,1885,1835,1789,1697,1686,1676,1664,1647,1633,1621,1617,1618,1612,1616,1621,1626,1626,1629,1638,1650,1661,1667,1673,1679,1694,1710,1726,1747,1760,1740,1731,1728,1730,1732,1740,1742,1737,1733,1719,1700,1681,1670,1660,1653,1647,1640,1638,1660,1676,1680,1685,1691,1701,1720,1747,1773,1803,1834,1865,1900,1922,1920,1906,1887,1862,1850,1837,1818,1800,1784,1765,1749,1734,1718,1703,1688,1677,1669,1662,1657,1653,1650,1653,1659,1661,1655,1648,1643,1634,1631,1631,1627,1611,1592,1573,1556,1546,1534,1519,1512,1504,1491,1471,1450,1426,1420,1418,1418,1424,1431,1439,1456,1473,1493,1517,1560,1580,1601,1629,1649,1638,1629,1619,1607,1592,1577,1564,1553,1542,1528,1516,1508,1499,1490,1482,1464,1456,1450,1445,1441,1438,1436,1433,1431
954,970,983,1002,1014,1026,1037,1047,1056,1062,1067,1080,1092,1075,1068,1068,1069,1071,1080,1086,1093,1099,1108,1117,1124,1130,1136,1144,1151,1159,1172,1189,1209,1225,1236,1233,1235,1246,1260,1274,1294,1326,1356,1374,1396,1428,1458,1484,1502,1523,1544,1582,1608,1657,1666,1720,1754,1782,1906,1869,1838,1874,1844,1788,1697,1671,1656,1645,1635,1623,1616,1611,1606,1603,1600,1613,1620,1620,1620,1627,1636,1647,1660,1667,1674,1682,1697,1713,1730,1747,1760,1757,1748,1739,1742,1747,1752,1758,1752,1746,1740,1713,1693,1679,1676,1673,1667,1662,1672,1680,1679,1683,1687,1696,1714,1734,1757,1785,1824,1864,1906,1940,1927,1914,1901,1889,1872,1849,1828,1810,1794,1778,1761,1747,1735,1723,1705,1693,1683,1676,1672,1672,1670,1667,1669,1670,1670,1670,1664,1656,1649,1643,1635,1624,1607,1590,1572,1555,1541,1526,1514,1510,1506,1502,1487,1467,1450,1442,1435,1419,1426,1440,1453,1470,1490,1513,1538,1585,1611,1631,1653,1651,1637,1625,1613,1600,1584,1568,1554,1542,1530,1518,1507,1498,1490,1482,1471,1460,1455,1450,1446,1441,1438,1435,1432,1430
947,960,976,996,1017,1029,1039,1047,1055,1062,1071,1096,1100,1077,1072,1068,1069,1072,1080,1088,1094,1102,1109,1116,1124,1131,1140,1152,1163,1172,1185,1208,1235,1247,1245,1243,1259,1268,1277,1298,1313,1330,1351,1373,1395,1424,1494,1540,1571,1606,1621,1656,1687,1720,1747,1752,1784,1926,1906,1856,1800,1796,1742,1690,1657,1639,1631,1620,1614,1610,1606,1602,1600,1600,1600,1602,1610,1619,1630,1642,1654,1661,1664,1669,1681,1689,1697,1710,1724,1738,1756,1760,1754,1749,1751,1757,1760,1760,1760,1758,1758,1749,1731,1713,1701,1702,1700,1708,1707,1698,1694,1697,1703,1717,1737,1758,1780,1809,1847,1890,1930,1932,1928,1918,1907,1889,1871,1850,1820,1799,1779,1769,1760,1752,1744,1733,1722,1717,1711,1704,1699,1690,1683,1677,1674,1673,1668,1663,1659,1655,1653,1651,1637,1625,1606,1586,1565,1549,1535,1522,1506,1502,1502,1501,1498,1486,1474,1458,1434,1422,1443,1453,1465,1482,1505,1527,1560,1600,1621,1645,1660,1654,1638,1623,1609,1592,1573,1556,1541,1532,1522,1508,1498,1491,1484,1477,1466,1458,1454,1450,1447,1444,1440,1438,1435,1432
932,952,974,997,1020,1029,1038,1046,1054,1067,1087,1100,1079,1075,1071,1062,1064,1068,1076,1084,1093,1103,1112,1121,1129,1137,1147,1157,1181,1196,1209,1222,1241,1244,1247,1255,1266,1275,1286,1303,1323,1343,1361,1384,1407,1436,1465,1512,1582,1629,1655,1689,1723,1750,1778,1813,1894,1940,1865,1806,1780,1725,1683,1660,1642,1619,1609,1600,1600,1600,1600,1600,1600,1600,1600,1600,1607,1617,1630,1643,1655,1664,1672,1680,1688,1695,1703,1717,1728,1740,1753,1769,1768,1760,1764,1767,1765,1761,1760,1764,1771,1764,1752,1750,1749,1743,1743,1739,1730,1722,1726,1732,1737,1750,1766,1784,1801,1840,1875,1917,1920,1921,1922,1921,1913,1898,1877,1857,1834,1808,1784,1773,1763,1754,1746,1738,1733,1726,1719,1714,1707,1700,1694,1690,1685,1681,1681,1678,1668,1663,1658,1650,1634,1620,1600,1576,1554,1537,1523,1513,1502,1500,1501,1501,1500,1500,1484,1459,1439,1435,1446,1457,1471,1489,1512,1538,1570,1603,1627,1660,1657,1644,1630,1613,1598,1578,1559,1540,1531,1522,1512,1502,1493,1484,1476,1468,1460,1457,1454,1451,1449,1446,1444,1441,1437,1436
924,953,980,1002,1020,1030,1039,1050,1061,1080,1086,1088,1080,1074,1066,1060,1060,1067,1077,1085,1092,1100,1112,1124,1133,1145,1160,1180,1199,1215,1231,1241,1248,1240,1240,1258,1267,1274,1285,1303,1328,1352,1377,1397,1420,1447,1496,1579,1631,1654,1684,1710,1733,1755,1790,1830,1901,1848,1818,1777,1738,1699,1668,1639,1617,1599,1589,1580,1594,1600,1594,1598,1600,1600,1600,1604,1613,1622,1632,1642,1652,1662,1671,1681,1691,1700,1709,1717,1735,1748,1758,1780,1788,1783,1780,1781,1780,1780,1777,1787,1784,1777,1777,1781,1784,1781,1775,1770,1765,1761,1765,1771,1776,1784,1797,1829,1871,1901,1904,1906,1908,1909,1913,1917,1911,1900,1891,1877,1854,1834,1810,1786,1771,1760,1754,1748,1745,1742,1737,1730,1722,1714,1705,1695,1688,1684,1683,1681,1672,1660,1651,1642,1620,1606,1587,1566,1547,1530,1517,1509,1501,1500,1500,1501,1500,1500,1487,1465,1444,1438,1448,1462,1475,1496,1520,1550,1596,1625,1650,1670,1643,1629,1618,1605,1587,1566,1549,1531,1518,1511,1504,1495,1484,1476,1470,1464,1459,1455,1451,1448,1445,1443,1440,1437,1439,1442
923,954,978,1002,1019,1029,1038,1050,1063,1080,1081,1077,1073,1067,1059,1057,1058,1061,1069,1077,1089,1104,1119,1136,1150,1166,1180,1197,1210,1224,1231,1230,1235,1241,1250,1253,1257,1266,1281,1301,1329,1361,1385,1405,1430,1464,1498,1573,1632,1674,1705,1732,1760,1787,1814,1823,1816,1796,1763,1737,1698,1677,1651,1618,1594,1579,1571,1576,1580,1580,1580,1584,1586,1591,1599,1608,1616,1623,1631,1637,1644,1654,1665,1681,1700,1707,1713,1721,1735,1748,1764,1791,1804,1799,1798,1803,1809,1814,1815,1814,1815,1818,1819,1813,1811,1810,1809,1810,1811,1814,1807,1813,1820,1841,1865,1890,1887,1891,1895,1899,1901,1899,1903,1909,1911,1911,1899,1882,1862,1843,1826,1805,1785,1771,1764,1762,1756,1747,1738,1728,1719,1709,1700,1690,1690,1688,1684,1680,1677,1659,1646,1630,1611,1595,1584,1570,1552,1535,1520,1510,1502,1500,1500,1500,1500,1500,1491,1471,1453,1448,1465,1475,1488,1506,1531,1566,1605,1640,1667,1662,1642,1618,1604,1590,1576,1563,1547,1531,1517,1507,1497,1489,1480,1473,1467,1460,1457,1454,1450,1445,1439,1442,1442,1440,1443,1446
921,951,974,1000,1010,1020,1032,1045,1065,1080,1076,1072,1067,1060,1050,1041,1048,1055,1062,1077,1092,1108,1124,1139,1152,1166,1182,1201,1215,1223,1227,1231,1235,1239,1248,1254,1259,1271,1288,1311,1336,1364,1388,1408,1436,1482,1552,1613,1663,1696,1725,1751,1780,1841,1838,1809,1785,1743,1705,1688,1669,1644,1623,1604,1579,1564,1560,1561,1565,1571,1578,1577,1579,1588,1600,1608,1615,1622,1628,1634,1642,1654,1672,1685,1695,1707,1718,1733,1747,1760,1777,1796,1825,1836,1831,1837,1842,1846,1847,1847,1853,1860,1870,1884,1864,1859,1860,1862,1860,1882,1886,1884,1884,1879,1876,1872,1872,1876,1881,1890,1891,1889,1895,1901,1909,1911,1910,1894,1880,1861,1842,1829,1815,1795,1778,1765,1756,1748,1741,1734,1727,1719,1710,1700,1695,1692,1688,1681,1664,1654,1645,1630,1613,1600,1590,1579,1559,1539,1520,1513,1507,1500,1500,1499,1484,1484,1475,1460,1460,1462,1475,1488,1504,1525,1557,1596,1633,1653,1661,1651,1638,1618,1605,1589,1572,1556,1542,1527,1513,1500,1490,1479,1471,1463,1459,1456,1454,1451,1444,1443,1445,1446,1445,1444,1446,1449
912,938,968,990,1003,1011,1019,1038,1057,1065,1068,1063,1055,1047,1039,1032,1038,1050,1063,1078,1093,1107,1120,1132,1145,1159,1179,1202,1217,1226,1233,1238,1245,1251,1255,1260,1271,1283,1304,1322,1343,1369,1393,1420,1450,1488,1588,1640,1682,1714,1742,1771,1860,1842,1816,1754,1717,1689,1670,1656,1643,1625,1594,1577,1563,1555,1559,1560,1560,1560,1560,1560,1572,1584,1596,1604,1610,1616,1624,1635,1649,1666,1680,1690,1702,1712,1723,1737,1753,1770,1788,1810,1863,1885,1904,1896,1891,1889,1889,1900,1911,1923,1920,1913,1909,1907,1904,1902,1884,1878,1874,1870,1866,1861,1852,1846,1847,1850,1858,1865,1872,1880,1887,1894,1900,1903,1906,1905,1904,1889,1871,1851,1828,1807,1791,1778,1768,1758,1749,1739,1732,1725,1718,1709,1701,1693,1687,1681,1668,1655,1638,1625,1612,1598,1581,1563,1547,1530,1519,1516,1513,1510,1510,1502,1494,1486,1477,1460,1474,1480,1487,1500,1523,1547,1578,1608,1629,1654,1652,1640,1627,1613,1600,1580,1564,1546,1532,1521,1506,1494,1484,1476,1469,1462,1457,1453,1449,1449,1450,1450,1450,1450,1449,1448,1449,1450
903,930,961,981,990,1001,1011,1022,1039,1046,1050,1045,1040,1036,1028,1020,1027,1040,1055,1070,1087,1101,1112,1124,1134,1149,1165,1181,1195,1219,1226,1233,1238,1251,1260,1272,1287,1304,1321,1337,1356,1384,1410,1436,1472,1527,1614,1662,1698,1728,1762,1860,1834,1792,1766,1736,1702,1678,1663,1645,1628,1602,1571,1551,1540,1549,1560,1560,1560,1556,1558,1564,1576,1584,1591,1597,1606,1615,1627,1642,1658,1669,1678,1685,1698,1710,1723,1732,1745,1768,1797,1845,1893,1925,1946,1952,1965,1975,1977,1968,1958,1945,1932,1919,1906,1895,1885,1875,1862,1850,1850,1853,1849,1842,1838,1832,1828,1828,1828,1840,1854,1868,1877,1883,1888,1893,1897,1903,1910,1908,1890,1872,1850,1826,1811,1798,1787,1777,1772,1765,1760,1752,1745,1736,1720,1706,1694,1685,1676,1666,1653,1634,1615,1597,1584,1568,1547,1534,1523,1520,1521,1520,1518,1517,1509,1499,1480,1479,1483,1492,1500,1512,1540,1569,1603,1627,1650,1650,1644,1632,1618,1606,1592,1576,1558,1539,1529,1513,1498,1488,1479,1474,1467,1461,1457,1452,1453,1454,1455,1456,1455,1453,1451,1451,1452,1458
901,930,953,966,976,981,992,1011,1023,1027,1027,1024,1025,1018,1009,1021,1027,1034,1040,1056,1068,1080,1095,1110,1124,1136,1147,1162,1182,1205,1223,1231,1238,1255,1265,1282,1299,1315,1336,1355,1375,1395,1424,1455,1482,1572,1645,1674,1708,1740,1826,1827,1793,1767,1745,1727,1702,1669,1636,1614,1594,1574,1553,1536,1530,1536,1543,1549,1541,1543,1556,1568,1580,1586,1592,1599,1609,1620,1632,1646,1670,1660,1663,1673,1686,1698,1711,1726,1748,1776,1816,1862,1908,1940,1976,2003,2025,2022,2003,1979,1959,1938,1919,1904,1890,1878,1870,1863,1854,1850,1850,1850,1843,1836,1830,1825,1825,1824,1824,1826,1829,1838,1852,1864,1870,1877,1885,1893,1901,1910,1909,1892,1876,1856,1840,1830,1820,1814,1806,1800,1794,1789,1783,1772,1748,1729,1710,1694,1680,1660,1652,1643,1625,1609,1597,1586,1574,1562,1554,1544,1537,1529,1523,1523,1521,1503,1485,1479,1492,1507,1523,1540,1563,1597,1626,1643,1644,1637,1629,1621,1605,1593,1583,1567,1551,1536,1522,1505,1491,1479,1474,1468,1462,1458,1455,1455,1457,1458,1460,1460,1460,1459,1457,1457,1462,1469
903,925,939,944,958,971,986,1001,1006,1004,1003,998,1001,1000,1000,1011,1022,1031,1038,1046,1058,1070,1081,1091,1100,1117,1135,1150,1163,1186,1213,1242,1259,1272,1290,1309,1324,1338,1351,1372,1393,1412,1445,1474,1512,1556,1649,1680,1709,1795,1820,1789,1759,1739,1723,1706,1676,1643,1616,1591,1574,1557,1538,1530,1530,1530,1540,1535,1543,1555,1564,1571,1579,1588,1596,1605,1613,1623,1636,1652,1664,1659,1659,1661,1684,1703,1718,1735,1756,1780,1812,1864,1912,1954,1989,2017,2030,2013,1985,1964,1941,1923,1913,1904,1894,1882,1871,1860,1853,1847,1842,1844,1841,1835,1824,1820,1820,1817,1817,1820,1822,1824,1827,1845,1858,1865,1872,1879,1890,1902,1916,1920,1903,1892,1881,1869,1858,1850,1845,1840,1837,1834,1822,1798,1777,1759,1743,1727,1707,1688,1665,1647,1625,1604,1594,1586,1578,1569,1561,1548,1539,1535,1531,1528,1524,1505,1491,1489,1507,1522,1541,1560,1580,1606,1625,1640,1635,1629,1622,1611,1599,1586,1575,1564,1552,1538,1523,1504,1488,1477,1470,1463,1459,1458,1457,1458,1459,1460,1461,1462,1462,1463,1464,1471,1478,1487
893,906,919,926,943,960,978,987,979,980,980,980,981,1001,1020,1026,1032,1038,1046,1053,1060,1070,1079,1091,1103,1116,1128,1141,1156,1177,1212,1245,1266,1285,1304,1322,1337,1353,1370,1388,1409,1447,1484,1502,1520,1575,1653,1684,1747,1808,1786,1756,1734,1715,1699,1686,1664,1631,1603,1581,1565,1541,1530,1526,1520,1523,1527,1535,1546,1557,1564,1570,1576,1583,1593,1604,1615,1627,1638,1654,1663,1668,1673,1678,1693,1708,1723,1735,1753,1776,1809,1852,1903,1952,2002,2020,2010,1989,1973,1960,1956,1945,1930,1914,1901,1887,1874,1862,1850,1840,1838,1839,1835,1829,1822,1815,1809,1805,1804,1811,1817,1814,1811,1820,1831,1842,1852,1862,1876,1890,1905,1921,1933,1931,1918,1906,1894,1880,1866,1852,1838,1820,1806,1793,1783,1768,1751,1731,1710,1689,1667,1650,1632,1610,1596,1590,1582,1573,1562,1554,1546,1542,1537,1533,1521,1502,1499,1515,1529,1542,1559,1582,1606,1625,1640,1639,1631,1623,1612,1600,1589,1578,1565,1556,1549,1541,1525,1506,1492,1480,1471,1463,1462,1462,1460,1460,1460,1460,1462,1464,1467,1469,1473,1480,1490,1500
885,891,898,913,930,950,975,965,962,972,985,999,1004,1009,1014,1020,1029,1038,1046,1052,1060,1068,1077,1088,1100,1116,1137,1155,1166,1177,1196,1225,1251,1283,1321,1343,1356,1378,1407,1429,1448,1463,1498,1536,1576,1628,1657,1690,1793,1786,1749,1725,1706,1688,1675,1664,1651,1629,1600,1571,1548,1532,1520,1517,1520,1526,1533,1540,1548,1555,1561,1567,1573,1578,1591,1604,1614,1625,1637,1648,1660,1665,1672,1679,1692,1705,1719,1733,1752,1777,1820,1887,1911,1938,1964,2002,1988,1970,1953,1938,1927,1915,1901,1897,1881,1872,1862,1851,1839,1831,1829,1829,1825,1821,1816,1803,1801,1799,1797,1803,1806,1803,1800,1794,1801,1817,1828,1842,1860,1873,1888,1904,1918,1917,1899,1884,1870,1858,1840,1826,1814,1800,1789,1775,1757,1739,1728,1716,1700,1681,1666,1649,1630,1614,1602,1594,1587,1580,1565,1557,1551,1546,1540,1533,1520,1520,1531,1540,1553,1569,1586,1620,1640,1642,1642,1637,1628,1619,1608,1595,1581,1571,1561,1552,1544,1532,1521,1505,1495,1488,1479,1473,1470,1467,1463,1460,1457,1455,1456,1460,1465,1470,1477,1485,1497,1505
884,890,895,904,920,945,961,952,976,991,993,996,1000,1008,1015,1023,1030,1037,1043,1051,1060,1068,1077,1088,1101,1121,1145,1171,1193,1211,1217,1219,1238,1268,1299,1321,1344,1369,1402,1444,1477,1498,1527,1553,1600,1636,1667,1736,1778,1737,1717,1698,1679,1659,1640,1630,1620,1606,1578,1557,1540,1530,1520,1510,1520,1530,1530,1538,1545,1551,1556,1561,1567,1573,1580,1593,1605,1615,1625,1634,1650,1668,1682,1688,1696,1702,1715,1740,1785,1810,1830,1854,1880,1928,1967,1986,1969,1954,1938,1919,1907,1893,1879,1869,1860,1852,1845,1840,1828,1822,1821,1820,1813,1809,1804,1795,1792,1788,1786,1787,1790,1781,1777,1770,1774,1786,1796,1808,1824,1846,1859,1885,1900,1902,1886,1865,1850,1840,1826,1810,1796,1777,1763,1748,1734,1721,1712,1703,1695,1687,1678,1658,1641,1630,1619,1600,1589,1580,1571,1561,1552,1544,1537,1535,1532,1538,1550,1559,1572,1588,1615,1645,1657,1660,1654,1638,1624,1615,1606,1597,1586,1576,1567,1557,1544,1535,1527,1519,1505,1493,1483,1475,1469,1463,1459,1455,1452,1450,1449,1451,1457,1464,1471,1485,1499,1507
883,888,893,898,912,932,941,952,971,981,980,989,987,993,1000,1010,1020,1032,1043,1053,1063,1074,1085,1098,1111,1125,1148,1173,1200,1224,1240,1254,1256,1261,1285,1318,1348,1381,1423,1458,1494,1540,1565,1591,1622,1649,1700,1760,1736,1714,1694,1672,1652,1631,1614,1602,1589,1575,1560,1547,1532,1518,1510,1510,1513,1519,1529,1535,1541,1549,1551,1554,1558,1565,1570,1579,1586,1595,1605,1620,1638,1652,1666,1673,1681,1694,1708,1731,1755,1787,1810,1834,1867,1920,1930,1953,1952,1935,1919,1907,1892,1878,1866,1853,1839,1833,1826,1823,1816,1808,1809,1805,1801,1792,1785,1781,1781,1780,1775,1764,1764,1752,1742,1742,1750,1757,1769,1786,1799,1813,1832,1854,1872,1891,1876,1849,1830,1818,1809,1798,1787,1771,1752,1734,1722,1710,1700,1694,1689,1684,1676,1667,1654,1636,1610,1594,1583,1577,1573,1566,1559,1560,1553,1544,1539,1546,1557,1571,1584,1601,1642,1674,1669,1659,1647,1635,1622,1613,1603,1594,1584,1577,1570,1563,1554,1545,1534,1524,1511,1497,1484,1475,1468,1459,1453,1449,1446,1444,1444,1446,1449,1457,1465,1476,1487,1497
879,886,894,902,913,927,931,941,952,959,965,970,983,996,1009,1021,1029,1037,1046,1055,1067,1081,1095,1109,1121,1134,1151,1171,1189,1208,1228,1248,1269,1294,1306,1317,1342,1380,1440,1468,1502,1540,1580,1612,1644,1677,1724,1741,1723,1702,1682,1660,1640,1622,1599,1587,1572,1557,1545,1533,1520,1509,1501,1510,1510,1514,1525,1530,1534,1539,1547,1556,1560,1562,1567,1573,1581,1589,1597,1607,1616,1629,1642,1657,1670,1681,1697,1714,1734,1757,1785,1826,1844,1871,1897,1940,1934,1918,1903,1888,1876,1866,1858,1850,1841,1833,1825,1816,1804,1796,1790,1783,1782,1774,1765,1762,1761,1757,1750,1742,1744,1733,1730,1730,1735,1741,1750,1760,1773,1788,1804,1822,1844,1865,1879,1854,1827,1808,1794,1783,1769,1753,1739,1728,1717,1708,1699,1689,1681,1675,1667,1655,1633,1618,1600,1590,1580,1576,1571,1562,1560,1556,1545,1540,1545,1557,1571,1591,1612,1638,1671,1680,1665,1652,1640,1632,1623,1613,1603,1591,1578,1569,1566,1563,1557,1545,1533,1520,1508,1496,1484,1474,1466,1457,1449,1444,1440,1438,1438,1440,1442,1445,1445,1448,1454,1460
883,889,895,905,937,939,943,949,955,961,968,975,983,993,1003,1017,1031,1044,1053,1062,1073,1086,1100,1112,1128,1145,1163,1179,1196,1216,1232,1260,1292,1313,1336,1360,1386,1425,1460,1511,1536,1568,1602,1632,1656,1713,1760,1750,1728,1712,1692,1670,1648,1625,1604,1579,1559,1552,1544,1533,1517,1501,1502,1510,1504,1507,1513,1517,1524,1533,1542,1551,1556,1560,1560,1566,1574,1584,1596,1605,1614,1624,1640,1647,1658,1669,1681,1698,1722,1742,1770,1796,1826,1866,1910,1940,1933,1920,1898,1879,1863,1847,1838,1833,1829,1822,1815,1807,1799,1793,1787,1781,1773,1765,1759,1753,1748,1743,1737,1733,1730,1730,1730,1730,1730,1734,1739,1750,1763,1776,1788,1799,1825,1852,1862,1840,1811,1791,1775,1764,1753,1740,1732,1723,1716,1709,1702,1689,1676,1668,1663,1654,1635,1605,1592,1584,1578,1574,1573,1571,1562,1551,1541,1540,1540,1553,1567,1580,1597,1622,1636,1655,1654,1644,1633,1625,1616,1606,1593,1578,1568,1559,1554,1546,1538,1532,1526,1515,1501,1482,1471,1460,1454,1447,1441,1437,1434,1429,1429,1430,1431,1430,1428,1428,1428,1432
879,887,896,920,936,938,939,944,949,954,960,969,978,991,1005,1019,1029,1039,1049,1060,1072,1084,1100,1114,1133,1156,1172,1190,1207,1224,1249,1272,1295,1321,1355,1388,1432,1486,1518,1546,1577,1605,1631,1655,1703,1748,1759,1745,1729,1708,1687,1669,1654,1636,1622,1597,1570,1548,1535,1525,1502,1500,1502,1504,1498,1490,1498,1506,1514,1522,1530,1537,1543,1548,1553,1559,1570,1582,1593,1603,1611,1619,1629,1637,1640,1655,1671,1691,1713,1737,1776,1813,1840,1872,1896,1932,1947,1926,1910,1892,1872,1853,1838,1830,1821,1817,1814,1810,1808,1803,1798,1792,1785,1779,1771,1762,1757,1753,1748,1744,1739,1732,1730,1728,1727,1731,1735,1739,1751,1763,1774,1787,1802,1820,1841,1841,1819,1788,1767,1754,1744,1734,1726,1717,1708,1700,1694,1688,1683,1670,1664,1653,1643,1634,1623,1608,1596,1590,1584,1577,1565,1552,1540,1534,1534,1541,1553,1562,1569,1578,1584,1592,1598,1601,1606,1621,1614,1602,1585,1571,1559,1550,1542,1533,1520,1512,1504,1490,1476,1466,1456,1444,1438,1434,1430,1426,1422,1420,1420,1415,1411,1408,1403,1400,1398,1400
872,876,888,916,925,930,934,938,944,951,957,966,976,987,1000,1011,1022,1033,1045,1057,1068,1079,1094,1112,1142,1168,1191,1212,1236,1248,1257,1276,1297,1327,1369,1422,1461,1500,1537,1566,1602,1632,1654,1687,1762,1752,1744,1756,1752,1742,1726,1704,1680,1660,1629,1598,1563,1536,1513,1495,1482,1489,1496,1497,1490,1480,1484,1492,1501,1507,1517,1522,1528,1535,1545,1557,1565,1574,1580,1586,1593,1599,1609,1618,1630,1645,1662,1681,1704,1748,1774,1796,1844,1873,1903,1947,1980,1966,1946,1930,1916,1903,1884,1874,1865,1848,1837,1830,1822,1816,1812,1813,1807,1802,1792,1780,1774,1768,1762,1760,1758,1748,1737,1726,1723,1727,1731,1735,1738,1750,1762,1764,1776,1791,1809,1827,1830,1809,1778,1755,1740,1732,1724,1720,1720,1710,1699,1690,1680,1677,1673,1667,1665,1656,1646,1633,1618,1608,1598,1584,1559,1540,1528,1522,1521,1525,1530,1536,1542,1548,1546,1547,1551,1555,1559,1581,1593,1597,1582,1570,1555,1539,1532,1524,1513,1500,1487,1471,1457,1450,1444,1436,1431,1427,1422,1418,1414,1408,1400,1395,1391,1386,1380,1379,1378,1375
875,896,927,922,923,928,932,937,944,951,958,967,975,986,997,1011,1025,1037,1048,1059,1071,1085,1100,1120,1150,1180,1203,1227,1253,1273,1291,1304,1316,1344,1380,1412,1460,1523,1553,1594,1630,1655,1691,1760,1737,1717,1710,1725,1733,1718,1698,1677,1654,1628,1598,1568,1537,1516,1493,1477,1473,1488,1491,1490,1479,1469,1474,1480,1484,1491,1499,1508,1519,1528,1536,1547,1554,1558,1564,1571,1577,1587,1598,1610,1624,1643,1663,1687,1712,1737,1764,1791,1836,1875,1905,1948,1977,1968,1963,1950,1933,1914,1897,1879,1863,1847,1838,1833,1827,1822,1822,1813,1803,1790,1777,1764,1758,1755,1752,1751,1747,1738,1729,1722,1720,1722,1724,1721,1720,1732,1731,1740,1755,1770,1788,1804,1821,1806,1777,1760,1748,1739,1735,1728,1720,1711,1702,1694,1687,1684,1681,1681,1677,1665,1654,1643,1622,1602,1590,1575,1552,1524,1515,1509,1506,1508,1510,1514,1520,1520,1524,1525,1521,1526,1530,1535,1540,1547,1558,1562,1560,1552,1543,1525,1496,1475,1462,1452,1443,1437,1433,1428,1425,1420,1415,1409,1405,1402,1397,1386,1376,1365,1358,1362,1361,1357
885,909,930,927,924,930,934,939,945,952,959,969,978,989,999,1017,1030,1043,1055,1067,1080,1095,1110,1131,1157,1189,1215,1241,1262,1285,1310,1335,1358,1385,1421,1443,1493,1525,1541,1590,1629,1660,1744,1740,1712,1679,1675,1692,1705,1691,1672,1651,1628,1606,1580,1545,1519,1501,1478,1462,1469,1488,1485,1474,1463,1457,1460,1462,1467,1482,1492,1500,1511,1523,1532,1540,1543,1549,1556,1563,1572,1581,1591,1604,1623,1643,1665,1689,1713,1741,1771,1807,1838,1862,1891,1930,1947,1946,1933,1923,1911,1895,1876,1860,1840,1820,1818,1817,1817,1813,1807,1803,1800,1790,1781,1774,1768,1762,1750,1739,1732,1724,1717,1715,1716,1713,1707,1700,1706,1711,1715,1724,1739,1758,1774,1791,1811,1812,1789,1769,1758,1757,1752,1745,1737,1723,1717,1701,1701,1701,1701,1696,1682,1665,1648,1634,1621,1604,1586,1566,1538,1518,1511,1504,1500,1497,1493,1496,1496,1498,1500,1503,1506,1500,1498,1498,1499,1503,1507,1511,1518,1510,1494,1469,1451,1440,1433,1440,1436,1431,1426,1421,1421,1411,1400,1381,1386,1377,1368,1360,1353,1345,1340,1345,1343,1340
900,930,930,930,931,933,936,941,947,954,960,969,978,991,1005,1017,1028,1040,1052,1065,1077,1100,1122,1142,1161,1182,1204,1224,1249,1277,1304,1344,1383,1421,1472,1515,1530,1576,1622,1637,1666,1753,1723,1687,1659,1640,1638,1651,1667,1669,1652,1632,1606,1580,1549,1523,1499,1486,1473,1460,1460,1469,1469,1465,1459,1444,1452,1454,1464,1472,1482,1492,1503,1514,1523,1530,1535,1539,1545,1554,1564,1575,1587,1602,1625,1648,1670,1693,1723,1754,1788,1817,1856,1900,1931,1937,1920,1913,1906,1894,1886,1874,1856,1838,1824,1802,1800,1805,1807,1805,1798,1788,1779,1774,1768,1764,1760,1749,1735,1724,1712,1712,1705,1702,1700,1696,1692,1694,1697,1699,1706,1715,1730,1750,1771,1792,1813,1830,1817,1802,1788,1776,1760,1747,1735,1726,1720,1721,1727,1732,1723,1704,1688,1670,1653,1629,1603,1587,1569,1549,1523,1513,1504,1499,1496,1494,1490,1488,1485,1482,1480,1480,1484,1485,1487,1485,1482,1482,1485,1483,1477,1466,1451,1434,1419,1411,1402,1403,1400,1397,1390,1383,1376,1369,1361,1351,1356,1347,1340,1336,1331,1326,1320,1330,1328,1325
911,931,933,935,937,940,940,943,950,957,964,971,978,990,1005,1020,1030,1040,1050,1061,1077,1109,1138,1149,1161,1184,1211,1243,1264,1292,1333,1371,1399,1438,1474,1515,1578,1627,1640,1712,1758,1743,1699,1665,1638,1616,1605,1615,1627,1640,1630,1615,1593,1565,1533,1506,1491,1477,1463,1451,1451,1456,1453,1452,1451,1444,1440,1440,1455,1465,1474,1485,1496,1505,1515,1520,1521,1530,1538,1546,1554,1566,1583,1608,1632,1659,1684,1714,1743,1771,1820,1857,1881,1903,1900,1902,1896,1884,1875,1868,1860,1853,1837,1820,1808,1792,1791,1791,1798,1794,1790,1776,1759,1753,1746,1740,1727,1718,1710,1702,1689,1701,1698,1690,1690,1689,1689,1689,1691,1696,1702,1716,1740,1755,1772,1790,1808,1823,1809,1793,1778,1770,1761,1749,1740,1734,1733,1731,1731,1722,1707,1691,1676,1660,1643,1619,1600,1580,1563,1543,1525,1512,1500,1495,1490,1491,1487,1484,1483,1482,1482,1481,1480,1480,1479,1474,1470,1465,1464,1461,1448,1434,1421,1411,1400,1392,1383,1379,1374,1369,1364,1358,1352,1344,1338,1331,1327,1323,1320,1317,1314,1310,1310,1310,1310,1311
925,930,932,935,938,942,946,950,954,958,965,974,982,993,1007,1023,1035,1050,1064,1076,1091,1113,1132,1150,1169,1188,1213,1245,1283,1314,1342,1377,1425,1455,1488,1544,1587,1627,1715,1756,1761,1730,1692,1652,1623,1599,1584,1580,1591,1592,1588,1584,1575,1553,1526,1497,1482,1466,1454,1444,1440,1441,1446,1452,1451,1450,1438,1440,1447,1455,1463,1473,1484,1497,1505,1512,1516,1519,1528,1538,1549,1561,1584,1609,1641,1671,1706,1729,1752,1795,1841,1871,1889,1888,1879,1874,1866,1862,1854,1847,1838,1820,1805,1788,1772,1761,1762,1755,1756,1751,1748,1743,1738,1731,1724,1717,1708,1698,1688,1680,1680,1681,1695,1706,1697,1689,1689,1689,1689,1693,1712,1730,1742,1749,1756,1768,1788,1802,1800,1784,1772,1762,1755,1747,1739,1726,1716,1709,1701,1680,1669,1658,1647,1633,1619,1606,1585,1564,1550,1538,1526,1510,1495,1485,1479,1474,1468,1474,1474,1471,1469,1481,1481,1477,1469,1464,1458,1439,1430,1431,1423,1408,1393,1382,1378,1373,1366,1355,1349,1344,1338,1332,1326,1320,1318,1312,1310,1307,1305,1302,1303,1305,1304,1301,1303,1304
922,924,925,929,938,943,946,950,954,957,965,975,986,1001,1014,1027,1038,1053,1069,1084,1095,1113,1135,1154,1175,1198,1220,1250,1280,1311,1355,1392,1460,1535,1545,1593,1620,1730,1782,1773,1747,1723,1689,1652,1617,1593,1575,1560,1557,1554,1551,1547,1544,1539,1523,1500,1482,1462,1448,1435,1437,1442,1446,1451,1451,1440,1420,1439,1452,1456,1460,1469,1478,1491,1497,1503,1509,1515,1522,1531,1541,1559,1582,1615,1652,1700,1738,1769,1805,1840,1864,1880,1871,1859,1853,1847,1841,1835,1829,1826,1810,1790,1774,1756,1739,1727,1720,1718,1722,1722,1722,1722,1722,1721,1720,1705,1694,1688,1680,1680,1680,1685,1695,1710,1705,1696,1689,1689,1689,1696,1721,1731,1728,1731,1740,1758,1779,1799,1800,1787,1772,1758,1749,1739,1727,1715,1703,1697,1684,1664,1649,1637,1628,1618,1603,1588,1567,1547,1534,1523,1509,1501,1510,1508,1502,1493,1480,1464,1447,1441,1439,1443,1454,1460,1460,1452,1443,1428,1412,1405,1403,1393,1380,1372,1364,1355,1344,1337,1332,1321,1317,1313,1310,1308,1307,1305,1304,1302,1301,1301,1300,1301,1300,1300,1300,1301
916,914,919,925,939,943,946,950,954,957,965,978,992,1008,1022,1031,1040,1053,1066,1079,1097,1116,1136,1160,1184,1207,1235,1266,1304,1332,1377,1426,1495,1539,1585,1624,1673,1740,1767,1740,1716,1692,1669,1648,1613,1585,1562,1545,1534,1526,1520,1519,1520,1524,1506,1489,1472,1456,1439,1423,1440,1441,1442,1444,1446,1434,1420,1443,1451,1454,1458,1466,1476,1484,1491,1495,1500,1507,1517,1524,1538,1558,1584,1613,1651,1686,1717,1758,1803,1827,1850,1859,1847,1838,1834,1828,1823,1815,1805,1798,1784,1770,1757,1739,1723,1709,1698,1694,1697,1700,1707,1715,1722,1721,1718,1699,1689,1683,1680,1680,1680,1680,1686,1701,1710,1707,1698,1694,1693,1699,1714,1715,1706,1717,1734,1752,1772,1792,1788,1775,1763,1750,1737,1727,1718,1708,1698,1690,1684,1670,1642,1628,1617,1607,1597,1583,1567,1546,1531,1527,1525,1525,1525,1527,1528,1519,1501,1486,1473,1459,1433,1420,1420,1425,1430,1425,1419,1413,1406,1392,1380,1374,1366,1359,1353,1347,1341,1329,1318,1310,1310,1309,1308,1307,1306,1305,1304,1303,1302,1301,1300,1300,1300,1300,1300,1301
900,898,905,918,929,939,942,947,952,958,967,980,997,1011,1023,1031,1039,1050,1060,1076,1095,1118,1149,1178,1203,1221,1247,1278,1320,1350,1410,1440,1482,1551,1595,1641,1740,1740,1760,1740,1710,1683,1658,1634,1613,1589,1560,1546,1533,1520,1511,1502,1501,1507,1496,1483,1468,1449,1432,1420,1430,1438,1439,1440,1440,1434,1420,1440,1445,1447,1447,1455,1467,1479,1485,1490,1497,1507,1512,1518,1530,1549,1574,1603,1642,1689,1728,1756,1778,1802,1820,1830,1830,1819,1808,1795,1789,1792,1783,1771,1756,1737,1725,1714,1705,1694,1682,1679,1679,1685,1692,1699,1708,1703,1697,1691,1691,1687,1683,1678,1672,1670,1676,1684,1703,1708,1708,1709,1710,1709,1710,1701,1699,1717,1730,1745,1768,1782,1780,1769,1759,1749,1737,1720,1711,1703,1693,1683,1680,1660,1638,1617,1610,1602,1590,1578,1565,1561,1552,1545,1538,1531,1530,1529,1528,1524,1513,1502,1497,1485,1456,1427,1403,1400,1399,1398,1402,1391,1380,1372,1364,1359,1355,1349,1343,1336,1328,1320,1318,1315,1310,1310,1310,1310,1310,1309,1309,1309,1309,1309,1309,1307,1304,1300,1300,1300
890,890,896,908,922,929,936,943,950,956,966,979,998,1008,1018,1026,1035,1046,1062,1080,1100,1127,1153,1175,1200,1219,1244,1290,1329,1360,1403,1458,1528,1584,1611,1730,1731,1734,1745,1754,1729,1700,1670,1638,1609,1585,1560,1547,1532,1518,1503,1495,1487,1487,1491,1476,1462,1447,1433,1420,1420,1430,1434,1438,1440,1439,1420,1427,1441,1441,1440,1445,1457,1471,1483,1490,1498,1505,1508,1509,1517,1533,1558,1588,1644,1672,1696,1732,1760,1770,1780,1794,1804,1796,1781,1767,1757,1760,1749,1735,1731,1719,1709,1698,1689,1680,1673,1669,1666,1664,1674,1677,1680,1676,1676,1680,1680,1683,1681,1680,1674,1670,1673,1678,1685,1695,1693,1687,1682,1682,1680,1681,1695,1712,1726,1740,1759,1776,1770,1762,1749,1740,1727,1713,1699,1692,1683,1671,1660,1651,1631,1616,1605,1597,1592,1588,1589,1582,1568,1548,1532,1527,1523,1520,1520,1513,1501,1495,1490,1479,1464,1440,1419,1401,1384,1379,1377,1371,1364,1360,1354,1348,1343,1338,1331,1325,1320,1320,1320,1321,1323,1323,1315,1320,1324,1328,1332,1333,1334,1329,1324,1320,1314,1308,1302,1300
890,890,891,898,912,921,928,936,944,952,963,977,993,1004,1011,1018,1028,1039,1056,1080,1107,1138,1163,1185,1210,1235,1263,1300,1337,1378,1428,1466,1526,1563,1595,1678,1678,1689,1715,1744,1735,1709,1672,1636,1606,1577,1556,1538,1524,1516,1509,1502,1492,1481,1470,1460,1453,1444,1432,1419,1412,1424,1430,1430,1434,1439,1431,1420,1428,1431,1432,1434,1436,1447,1453,1463,1476,1493,1499,1499,1506,1522,1549,1591,1617,1651,1680,1704,1721,1730,1740,1754,1772,1765,1756,1746,1738,1729,1727,1716,1708,1703,1689,1677,1671,1667,1664,1660,1657,1656,1660,1656,1650,1652,1657,1659,1666,1683,1681,1680,1675,1670,1671,1672,1672,1670,1663,1664,1660,1663,1660,1671,1688,1707,1720,1735,1754,1760,1756,1744,1740,1731,1717,1704,1693,1683,1672,1661,1651,1640,1625,1611,1600,1600,1600,1605,1596,1585,1579,1578,1563,1547,1536,1529,1512,1499,1490,1491,1491,1486,1466,1438,1417,1403,1389,1376,1366,1358,1352,1348,1342,1337,1332,1328,1324,1320,1320,1324,1330,1332,1338,1344,1346,1350,1354,1358,1363,1368,1366,1361,1354,1346,1337,1326,1318,1311
889,889,892,896,900,911,921,930,939,950,961,973,985,996,1005,1013,1022,1037,1054,1081,1112,1143,1166,1192,1217,1246,1281,1316,1355,1416,1450,1479,1523,1538,1562,1599,1641,1675,1704,1724,1722,1700,1662,1630,1605,1581,1557,1537,1525,1516,1509,1503,1490,1477,1463,1453,1444,1437,1429,1420,1400,1412,1430,1430,1422,1427,1423,1404,1404,1420,1422,1422,1421,1426,1431,1439,1458,1473,1483,1490,1499,1516,1539,1564,1600,1631,1650,1667,1683,1695,1703,1719,1733,1743,1739,1731,1724,1717,1710,1702,1701,1700,1689,1679,1659,1649,1650,1651,1644,1646,1649,1639,1637,1639,1646,1653,1664,1682,1681,1677,1672,1670,1663,1659,1651,1640,1639,1640,1645,1642,1645,1662,1682,1700,1714,1733,1752,1760,1757,1739,1731,1722,1705,1687,1672,1660,1654,1647,1640,1633,1625,1616,1603,1600,1601,1597,1589,1585,1586,1590,1575,1548,1515,1494,1480,1472,1465,1467,1470,1458,1439,1415,1395,1382,1376,1368,1362,1352,1348,1343,1337,1332,1327,1323,1320,1320,1325,1332,1339,1344,1359,1360,1362,1368,1375,1384,1392,1400,1404,1397,1386,1367,1352,1340,1335,1330
887,890,894,898,906,915,923,930,937,946,956,967,978,987,996,1007,1020,1033,1052,1084,1110,1140,1165,1185,1204,1225,1252,1291,1333,1387,1421,1456,1489,1516,1550,1596,1664,1685,1707,1715,1704,1688,1670,1646,1609,1590,1568,1546,1532,1520,1507,1496,1486,1475,1458,1441,1433,1426,1420,1405,1380,1384,1403,1409,1406,1400,1400,1401,1383,1384,1394,1400,1402,1410,1418,1433,1446,1456,1466,1476,1489,1503,1522,1553,1587,1604,1617,1629,1641,1654,1669,1683,1694,1705,1700,1699,1697,1694,1689,1683,1675,1679,1676,1671,1658,1638,1636,1640,1636,1638,1635,1625,1625,1634,1640,1649,1669,1681,1675,1667,1661,1650,1640,1637,1634,1628,1624,1628,1633,1639,1652,1671,1687,1699,1713,1731,1755,1759,1742,1726,1715,1708,1699,1682,1664,1653,1644,1636,1628,1620,1616,1613,1611,1608,1599,1596,1593,1589,1587,1583,1562,1528,1494,1475,1460,1457,1453,1448,1444,1433,1415,1398,1389,1378,1367,1357,1350,1347,1343,1339,1335,1330,1330,1329,1334,1339,1348,1348,1351,1360,1370,1376,1384,1396,1407,1419,1430,1442,1456,1457,1436,1400,1372,1353,1340,1335
886,888,892,900,906,913,920,927,935,943,952,962,973,986,1000,1015,1029,1042,1056,1076,1102,1121,1142,1170,1196,1226,1260,1302,1376,1401,1428,1458,1481,1507,1545,1594,1642,1665,1696,1701,1689,1674,1659,1639,1624,1610,1591,1560,1537,1521,1505,1490,1477,1466,1453,1439,1431,1424,1407,1391,1374,1360,1366,1378,1380,1377,1374,1382,1373,1360,1366,1377,1388,1399,1410,1420,1436,1446,1455,1463,1470,1477,1501,1528,1549,1567,1582,1593,1603,1618,1634,1642,1649,1661,1663,1662,1664,1665,1662,1661,1656,1649,1651,1657,1646,1634,1624,1630,1626,1623,1616,1608,1606,1611,1626,1648,1664,1666,1663,1659,1660,1652,1644,1635,1625,1620,1620,1621,1627,1638,1661,1677,1688,1699,1715,1736,1753,1744,1733,1722,1711,1700,1690,1680,1668,1659,1653,1648,1643,1627,1623,1618,1606,1597,1591,1587,1582,1580,1580,1577,1550,1521,1498,1488,1470,1458,1453,1448,1443,1436,1428,1419,1404,1388,1369,1353,1351,1344,1338,1335,1332,1334,1338,1346,1351,1359,1371,1366,1367,1371,1384,1398,1407,1418,1430,1447,1471,1498,1501,1483,1454,1423,1397,1373,1355,1342
886,888,889,898,905,911,918,928,942,952,961,970,980,995,1008,1021,1034,1050,1066,1078,1100,1126,1160,1180,1202,1233,1280,1322,1351,1375,1412,1450,1482,1514,1577,1628,1633,1639,1655,1680,1673,1660,1646,1630,1614,1598,1583,1560,1533,1512,1495,1480,1468,1454,1440,1433,1426,1414,1398,1391,1383,1364,1351,1353,1356,1353,1350,1360,1357,1340,1355,1366,1374,1383,1400,1411,1422,1432,1442,1449,1449,1453,1463,1484,1504,1519,1535,1545,1555,1569,1582,1595,1610,1619,1628,1635,1637,1635,1637,1635,1630,1624,1614,1622,1617,1612,1614,1620,1615,1605,1598,1594,1590,1594,1602,1628,1642,1644,1647,1648,1652,1643,1633,1622,1614,1610,1614,1618,1629,1650,1665,1675,1686,1701,1722,1745,1740,1729,1717,1707,1697,1685,1676,1669,1662,1657,1652,1648,1643,1637,1626,1610,1591,1577,1570,1570,1569,1569,1564,1549,1536,1525,1520,1520,1492,1470,1450,1435,1426,1417,1405,1394,1383,1375,1370,1371,1361,1356,1351,1348,1351,1357,1363,1371,1373,1383,1400,1391,1386,1389,1405,1421,1427,1434,1441,1462,1492,1521,1524,1500,1483,1454,1424,1389,1365,1353
886,887,889,901,909,918,927,936,945,956,967,978,991,1004,1017,1027,1037,1056,1082,1097,1110,1125,1145,1176,1210,1240,1269,1308,1336,1371,1407,1446,1475,1502,1564,1596,1592,1612,1632,1662,1661,1653,1638,1625,1612,1597,1578,1552,1531,1514,1497,1485,1473,1463,1453,1443,1432,1420,1403,1380,1359,1342,1341,1340,1343,1339,1338,1346,1328,1342,1354,1364,1372,1380,1395,1406,1415,1423,1432,1436,1431,1430,1436,1446,1459,1480,1490,1500,1521,1532,1543,1557,1573,1580,1591,1600,1602,1604,1606,1607,1606,1603,1596,1598,1596,1598,1604,1607,1601,1594,1587,1580,1580,1583,1596,1605,1612,1619,1632,1638,1629,1620,1610,1610,1610,1610,1610,1616,1631,1655,1668,1679,1694,1713,1735,1750,1744,1723,1710,1699,1691,1684,1676,1670,1665,1659,1654,1648,1643,1629,1607,1584,1574,1569,1567,1565,1563,1561,1551,1540,1533,1529,1525,1508,1482,1459,1446,1432,1418,1409,1400,1400,1406,1404,1400,1396,1383,1375,1373,1372,1377,1383,1393,1401,1410,1419,1415,1402,1402,1402,1420,1428,1438,1448,1458,1480,1514,1547,1559,1532,1494,1464,1429,1397,1374,1362
887,889,897,906,914,923,934,944,953,963,974,986,1000,1011,1024,1037,1053,1075,1091,1104,1113,1126,1145,1168,1197,1229,1264,1302,1352,1385,1415,1437,1463,1486,1528,1549,1572,1602,1630,1657,1656,1646,1632,1620,1604,1585,1564,1545,1530,1516,1505,1495,1486,1476,1464,1453,1441,1422,1406,1385,1362,1342,1320,1340,1341,1335,1331,1331,1319,1322,1341,1353,1366,1380,1391,1401,1408,1414,1420,1417,1409,1407,1408,1414,1421,1435,1454,1468,1490,1505,1510,1518,1528,1538,1549,1560,1562,1567,1572,1570,1574,1579,1578,1580,1587,1590,1594,1596,1593,1585,1581,1580,1579,1579,1585,1594,1605,1616,1625,1624,1610,1610,1610,1610,1610,1610,1610,1617,1643,1668,1683,1693,1711,1728,1740,1749,1737,1721,1710,1700,1693,1686,1680,1674,1668,1662,1649,1635,1621,1599,1583,1576,1570,1573,1579,1579,1560,1552,1544,1548,1549,1543,1529,1499,1475,1457,1443,1433,1423,1429,1437,1440,1443,1446,1436,1417,1407,1401,1399,1407,1418,1422,1423,1429,1434,1423,1419,1418,1424,1427,1435,1446,1461,1473,1493,1520,1556,1580,1556,1528,1493,1463,1427,1399,1387,1385
888,891,899,908,918,926,934,944,955,966,976,989,1004,1016,1027,1038,1054,1073,1090,1103,1113,1132,1155,1175,1195,1225,1266,1308,1341,1378,1449,1476,1530,1576,1592,1580,1601,1627,1649,1651,1647,1637,1619,1596,1573,1555,1539,1527,1516,1506,1495,1483,1474,1465,1457,1448,1437,1418,1403,1388,1368,1343,1320,1320,1331,1328,1325,1322,1300,1308,1334,1355,1370,1382,1388,1394,1400,1401,1398,1401,1393,1390,1392,1399,1407,1414,1423,1439,1454,1465,1477,1480,1490,1500,1509,1519,1527,1533,1539,1544,1548,1543,1540,1557,1569,1571,1573,1570,1567,1566,1567,1566,1563,1560,1560,1576,1601,1611,1617,1612,1610,1610,1610,1610,1610,1610,1615,1628,1654,1669,1682,1704,1725,1738,1746,1752,1752,1738,1728,1719,1714,1709,1702,1687,1669,1653,1637,1623,1610,1599,1591,1594,1599,1599,1586,1578,1572,1567,1563,1561,1554,1542,1521,1488,1464,1456,1451,1451,1455,1456,1463,1472,1480,1467,1446,1435,1440,1439,1440,1447,1452,1451,1452,1451,1437,1425,1422,1439,1450,1454,1471,1488,1502,1521,1541,1573,1589,1560,1532,1509,1484,1445,1420,1402,1405,1401
888,898,908,916,926,937,945,952,960,969,979,990,1000,1016,1026,1033,1042,1057,1080,1100,1114,1135,1161,1175,1196,1235,1274,1302,1328,1402,1434,1478,1553,1582,1596,1613,1632,1640,1641,1642,1639,1629,1612,1580,1557,1536,1512,1496,1485,1474,1462,1453,1445,1439,1430,1422,1414,1406,1393,1371,1354,1342,1323,1312,1311,1316,1321,1304,1296,1322,1340,1357,1369,1380,1381,1384,1389,1386,1375,1376,1380,1378,1379,1385,1391,1397,1403,1413,1421,1428,1436,1449,1462,1470,1478,1488,1497,1505,1516,1514,1511,1509,1508,1520,1540,1547,1555,1550,1546,1548,1552,1554,1551,1548,1556,1570,1589,1603,1610,1609,1610,1609,1610,1610,1610,1618,1634,1648,1661,1680,1695,1715,1733,1744,1752,1759,1762,1760,1756,1753,1747,1750,1736,1713,1696,1683,1664,1647,1633,1625,1624,1621,1614,1600,1589,1580,1580,1579,1573,1563,1549,1531,1506,1490,1479,1476,1472,1469,1474,1479,1489,1484,1481,1475,1476,1471,1482,1476,1477,1483,1479,1470,1474,1457,1440,1440,1452,1471,1484,1492,1511,1529,1540,1553,1576,1603,1600,1559,1532,1508,1487,1460,1436,1427,1418,1409
893,900,910,919,929,939,952,963,970,977,985,993,1000,1005,1014,1027,1038,1055,1077,1100,1113,1129,1151,1175,1204,1243,1277,1307,1340,1397,1429,1466,1512,1547,1583,1618,1640,1640,1640,1640,1633,1625,1605,1577,1556,1540,1513,1486,1468,1455,1447,1438,1430,1422,1410,1398,1390,1387,1378,1357,1340,1330,1318,1304,1301,1305,1301,1280,1306,1328,1344,1360,1366,1372,1378,1380,1380,1373,1359,1357,1362,1364,1367,1373,1379,1384,1391,1397,1405,1414,1423,1434,1438,1443,1452,1461,1468,1480,1485,1484,1483,1487,1491,1494,1504,1514,1525,1533,1535,1537,1539,1544,1542,1540,1548,1561,1575,1592,1602,1600,1601,1604,1607,1611,1629,1642,1649,1655,1667,1684,1705,1723,1734,1746,1757,1764,1772,1781,1788,1792,1786,1769,1747,1732,1718,1699,1687,1671,1655,1642,1628,1614,1600,1600,1600,1597,1595,1585,1572,1553,1534,1519,1509,1512,1505,1495,1482,1491,1501,1509,1502,1495,1488,1500,1516,1520,1521,1522,1520,1508,1499,1495,1492,1480,1478,1475,1488,1494,1504,1517,1536,1545,1553,1570,1600,1620,1600,1559,1529,1503,1483,1463,1443,1436,1430,1424
889,900,910,920,929,939,950,961,971,981,989,997,1003,1008,1014,1019,1032,1051,1074,1092,1111,1129,1150,1176,1208,1247,1285,1320,1361,1411,1500,1550,1540,1556,1585,1614,1630,1640,1640,1640,1640,1629,1604,1575,1554,1537,1514,1493,1479,1459,1450,1439,1423,1406,1392,1379,1360,1361,1359,1345,1330,1316,1305,1290,1298,1299,1280,1290,1315,1334,1347,1358,1365,1370,1376,1380,1369,1355,1344,1341,1346,1351,1356,1362,1374,1386,1400,1404,1406,1410,1415,1420,1424,1430,1440,1450,1460,1470,1472,1474,1476,1478,1480,1485,1494,1506,1516,1522,1526,1530,1535,1539,1536,1539,1544,1554,1559,1574,1598,1610,1611,1613,1616,1622,1629,1635,1642,1656,1676,1699,1721,1732,1743,1753,1763,1771,1780,1789,1797,1791,1770,1750,1735,1719,1705,1687,1670,1655,1640,1628,1619,1616,1616,1620,1618,1622,1618,1593,1575,1560,1551,1540,1540,1532,1518,1520,1523,1528,1527,1521,1504,1505,1520,1538,1540,1537,1538,1540,1534,1533,1527,1519,1516,1522,1529,1521,1515,1516,1525,1541,1553,1559,1563,1589,1617,1634,1603,1566,1534,1510,1482,1460,1453,1445,1438,1431
891,901,912,922,929,936,944,954,966,981,990,998,1010,1014,1019,1027,1036,1047,1064,1085,1103,1127,1159,1196,1229,1251,1277,1317,1380,1418,1457,1544,1563,1575,1598,1617,1628,1637,1640,1640,1640,1630,1608,1576,1547,1525,1513,1503,1490,1476,1460,1443,1422,1397,1378,1360,1349,1350,1349,1332,1314,1296,1283,1280,1285,1280,1283,1305,1322,1337,1346,1355,1361,1363,1365,1366,1352,1339,1330,1334,1338,1350,1365,1379,1396,1410,1420,1422,1425,1428,1426,1429,1428,1432,1443,1456,1467,1477,1480,1480,1480,1480,1480,1480,1491,1501,1514,1522,1526,1531,1535,1541,1543,1540,1539,1547,1557,1573,1584,1592,1600,1608,1614,1612,1627,1647,1664,1677,1700,1716,1730,1741,1753,1764,1775,1784,1793,1800,1789,1771,1751,1734,1720,1710,1699,1675,1657,1643,1638,1636,1638,1640,1637,1635,1640,1640,1622,1607,1595,1583,1570,1556,1543,1541,1549,1551,1553,1556,1544,1533,1524,1536,1550,1546,1540,1541,1545,1550,1550,1550,1547,1547,1555,1566,1561,1552,1547,1540,1543,1555,1565,1574,1593,1616,1641,1624,1587,1562,1544,1516,1487,1474,1466,1456,1449,1443
